# .PCD v0.7 - Point Cloud Data file format
VERSION 0.7
FIELDS x y z
SIZE 4 4 4
TYPE F F F
COUNT 1 1 1
WIDTH 102
HEIGHT 1
VIEWPOINT 0 0 0 1 0 0 0
POINTS 102
DATA ascii
9.1188002 2.6788001 -1.0135
9.1238003 2.6789999 -1.0186
9.1476002 2.6201999 -0.94220001
9.1195002 2.7074001 -0.95889997
9.1174002 2.7262001 -0.94840002
9.1534996 2.7198 -0.92650002
9.1775999 2.6633999 -1.0467
9.1849003 2.6559999 -1.0457
9.1591997 2.6942 -1.0409
9.1747999 2.6837001 -1.0467
9.1457005 2.6791 -1.0387
9.1594 2.6979001 -1.0395
9.1589003 2.6459 -1.0394
9.1554003 2.7003 -1.0376
9.1403999 2.7193 -1.0157
9.1296997 2.6998999 -1.0197999
9.2004995 2.7448001 -0.94220001
9.1194 2.6598001 -1.0112
9.1645002 2.7353001 -1.0093
9.1387997 2.7189 -1.0140001
9.1399002 2.7254 -1.0056
9.1584997 2.7358 -1.0023
9.2028999 2.7428999 -0.9393
9.1197004 2.6399 -0.9932
9.1194 2.6438999 -0.99959999
9.1292 2.7184 -0.99970001
9.1532001 2.7356 -0.99900001
9.1395998 2.7290001 -0.99779999
9.1197004 2.6372001 -0.97350001
9.1177998 2.6407001 -0.97039998
9.1255999 2.7198999 -0.97490001
9.1393995 2.7353001 -0.97920001
9.1531 2.7393999 -0.97030002
9.1582003 2.7409 -0.96780002
9.1373997 2.7197001 -0.94160002
9.1398001 2.7290001 -0.95569998
9.1585999 2.7335 -0.94190001
9.1742001 2.7381999 -0.94199997
9.1971998 2.7425001 -0.94029999
9.1941004 2.7391 -0.93690002
9.1399002 2.7156999 -0.93419999
9.1597996 2.7276001 -0.93339998
9.1791 2.7321 -0.93229997
9.1486998 2.6403999 -0.9206
9.1427002 2.6991 -0.92070001
9.1585999 2.6380999 -0.91720003
9.1374998 2.7068 -0.91589999
9.1589003 2.7026999 -0.91289997
9.1596003 2.6582999 -0.90880001
9.1597996 2.6794 -0.90750003
9.1594 2.698 -0.91100001
9.1754999 2.704 -0.90960002
9.2219 2.6575 -0.91109997
9.2194996 2.6582999 -0.9109
9.1935997 2.6586001 -0.9073
9.177 2.6591001 -0.90579998
9.1982002 2.7009001 -0.90859997
9.2337999 2.6663001 -0.9109
9.2177 2.6629 -0.90930003
9.1997995 2.6684999 -0.90630001
9.1782999 2.6703999 -0.90469998
9.1974001 2.6982 -0.90810001
9.1786003 2.6963999 -0.90820003
9.2186003 2.7005 -0.90890002
9.2154999 2.6982 -0.90850002
9.1272001 2.6407001 -0.9418
9.1590996 2.6580999 -1.0431
9.1576996 2.6775 -1.0438
9.1394997 2.6981001 -1.0301
9.1399002 2.7156999 -1.0201
9.1195002 2.6399 -0.9558
9.1232996 2.698 -0.94090003
9.1197004 2.6585 -0.94150001
9.1198997 2.6826999 -0.9386
9.1876001 2.7509999 -0.97280002
9.1391001 2.6387999 -1.0235
9.1196003 2.6991999 -1.0055
9.1396999 2.6326001 -1.0191
9.1195002 2.7026 -1.001
9.1132002 2.6795001 -0.99940002
9.1170998 2.6995001 -0.9989
9.1197004 2.7109001 -0.98470002
9.1140003 2.7277 -0.98250002
9.1093998 2.6796 -0.97790003
9.1141005 2.6998 -0.97960001
9.1197996 2.7119999 -0.97899997
9.1398001 2.6276 -0.94019997
9.1189003 2.6788001 -0.9411
9.1198997 2.6981001 -0.94690001
9.1195002 2.6789999 -0.9382
9.1394997 2.6389999 -0.92869997
9.1399002 2.6551001 -0.92040002
9.1399002 2.6592 -0.91900003
9.1394997 2.6589999 -1.0335
9.1398001 2.6798999 -1.0351
9.1344004 2.6401999 -1.02
9.1219997 2.6406 -0.99940002
9.1362 2.6789999 -0.92009997
9.1393995 2.6993001 -0.92309999
9.1393003 2.6786001 -0.9174
9.1396999 2.6921999 -0.91960001
9.1794004 2.7485001 -0.97350001
