# .PCD v0.7 - Point Cloud Data file format
VERSION 0.7
FIELDS x y z
SIZE 4 4 4
TYPE F F F
COUNT 1 1 1
WIDTH 100
HEIGHT 1
VIEWPOINT 0 0 0 1 0 0 0
POINTS 100
DATA ascii
9.7398996 2.1580999 0.47220001
9.7588997 2.1389999 0.4761
9.7594004 2.1431999 0.4799
9.7791996 2.1315 0.47940001
9.7446003 2.1605 0.47870001
9.7594004 2.2444 0.46110001
9.7606001 2.2420001 0.4646
9.7608004 2.1408999 0.479
9.7599001 2.2406001 0.39559999
9.7363997 2.2189 0.40009999
9.7398996 2.2334001 0.43560001
9.7550001 2.2395 0.40009999
9.7596998 2.2511001 0.4174
9.7302999 2.2198999 0.4391
9.7455997 2.2399001 0.4305
9.7798004 2.112 0.433
9.7586002 2.1206999 0.43939999
9.7599001 2.2512 0.43439999
9.7669001 2.2282 0.37459999
9.7881002 2.1321001 0.37490001
9.7793999 2.1368999 0.4849
9.7784996 2.1489 0.4941
9.7586002 2.1796999 0.49380001
9.7750998 2.1645999 0.4991
9.7670002 2.1956 0.49880001
9.7599001 2.1975999 0.4937
9.7594004 2.2253001 0.48140001
9.7646999 2.2118001 0.4928
9.7596998 2.2142999 0.49259999
9.7612 2.2514999 0.4253
9.7599001 2.2499001 0.44069999
9.7624998 2.2437 0.3969
9.7599001 2.1798999 0.3651
9.7594995 2.1582999 0.36970001
9.7392998 2.2232001 0.39899999
9.7397003 2.1805 0.37979999
9.7599001 2.1377001 0.38370001
9.7589998 2.1417 0.3802
9.7391005 2.2195001 0.3955
9.7655001 2.2328 0.38029999
9.7618999 2.2516 0.419
9.7846003 2.1301 0.4806
9.7804003 2.1422999 0.49129999
9.7621002 2.2270999 0.4831
9.7393999 2.1428001 0.40270001
9.7355003 2.1407001 0.4386
9.7791004 2.1178999 0.45820001
9.7448997 2.1605 0.38010001
9.7397003 2.1443999 0.45919999
9.7791004 2.1191001 0.461
9.7417002 2.1993999 0.47929999
9.7397003 2.1387999 0.4102
9.7398005 2.1348 0.43900001
9.7395 2.1387999 0.44940001
9.7531996 2.1898999 0.50150001
9.7396002 2.1593001 0.38620001
9.7425003 2.1408999 0.40000001
9.7397003 2.2334001 0.4199
9.7195997 2.1898 0.4337
9.7421999 2.1408999 0.45930001
9.7282 2.1988001 0.45989999
9.7362003 2.2189 0.4598
9.7398996 2.2309 0.44780001
9.7397003 2.1989999 0.4777
9.7398005 2.2147 0.4693
9.7598 2.1556001 0.48820001
9.7552996 2.1561 0.5
9.7550001 2.1736 0.50230002
9.7795 2.1192 0.39840001
9.7912998 2.1168001 0.39570001
9.7517004 2.2198999 0.47780001
9.7608995 2.2395 0.4693
9.7599001 2.2393 0.4677
9.7931004 2.1124001 0.4052
9.7798996 2.1143999 0.41100001
9.7596998 2.1245999 0.40270001
9.7923002 2.1085999 0.43059999
9.7596998 2.1198001 0.43790001
9.7198 2.1798999 0.42919999
9.7592001 2.1271 0.4596
9.7870998 2.1196001 0.46799999
9.7229004 2.1987 0.4373
9.7907 2.1108999 0.44760001
9.7278004 2.1998 0.40020001
9.7792997 2.1289001 0.3831
9.7605 2.1408 0.38029999
9.7699003 2.1206999 0.40090001
9.7598 2.2392001 0.39399999
9.7663002 2.1598001 0.50019997
9.7903004 2.1238 0.3831
9.7395 2.178 0.3804
9.7273998 2.1754 0.40000001
9.7396002 2.1793001 0.47870001
9.7249002 2.1707001 0.4237
9.7729998 2.1201 0.45919999
9.7554998 2.2395999 0.4596
9.7272997 2.1766 0.4596
9.7870998 2.1221001 0.47060001
9.7737999 2.1643 0.50059998
9.7693996 2.1847999 0.50059998
