# .PCD v0.7 - Point Cloud Data file format
VERSION 0.7
FIELDS x y z
SIZE 4 4 4
TYPE F F F
COUNT 1 1 1
WIDTH 95
HEIGHT 1
VIEWPOINT 0 0 0 1 0 0 0
POINTS 95
DATA ascii
9.4219999 1.4837 -1.0202
9.3781996 1.4722 -0.93580002
9.3599997 1.5451 -1.0415
9.3797998 1.5192 -1.0405
9.3786001 1.5265 -1.0423
9.3842001 1.5009 -1.0343
9.3755999 1.5223 -1.0389
9.3732996 1.5599 -1.0378
9.3793001 1.5153 -1.0385
9.3593998 1.5196 -1.0265
9.3599005 1.5369999 -1.0311
9.3597002 1.5588 -1.0378
9.3794003 1.4991 -1.0295
9.3989 1.4921 -1.03
9.4126997 1.4866 -1.0240999
9.3642998 1.5 -1.0186
9.4112997 1.4832 -1.0199
9.3976002 1.4831001 -1.0194
9.3599005 1.5052 -1.0185
9.3523998 1.5223 -1.0197999
9.3397999 1.5364 -1.0022
9.3399 1.5506999 -1.0006
9.3514004 1.5587 -1.0188
9.3599005 1.4993 -1.0136
9.3788996 1.4791 -1.0038
9.3795996 1.4879 -1.0185
9.3990002 1.4777 -1.0131
9.3411999 1.5218 -0.99910003
9.3414001 1.5594 -0.99910003
9.3515997 1.5003999 -0.99980003
9.3399 1.5190001 -0.995
9.3388004 1.5362999 -0.99910003
9.3396997 1.5591 -0.99440002
9.3716002 1.4813 -1
9.3599005 1.4902 -0.99900001
9.3397999 1.5628 -0.99180001
9.3508997 1.5799 -0.99900001
9.3795004 1.477 -0.99900001
9.3395996 1.5152 -0.97439998
9.3597002 1.4848 -0.97600001
9.349 1.5 -0.96039999
9.3401003 1.5203 -0.96020001
9.335 1.5395 -0.97920001
9.3372002 1.5587 -0.97909999
9.3399 1.5675 -0.97869998
9.3479996 1.5793999 -0.96130002
9.3796997 1.4737 -0.96579999
9.3683004 1.4808 -0.96090001
9.3396997 1.5604 -0.9587
9.4127998 1.4680001 -0.97839999
9.3992004 1.467 -0.97399998
9.3396997 1.5592 -0.9569
9.3396997 1.5391001 -0.94989997
9.3795996 1.477 -0.95380002
9.3463001 1.5227 -0.94099998
9.3599997 1.4881001 -0.95709997
9.3584003 1.5003999 -0.94029999
9.3469 1.5591 -0.94129997
9.3853998 1.4801 -0.9411
9.3799 1.4804 -0.9454
9.4176998 1.4736 -0.95120001
9.3992004 1.4694999 -0.95889997
9.3992996 1.4768 -0.93910003
9.3599005 1.5185 -0.92570001
9.3795996 1.4992 -0.9228
9.3594999 1.5355999 -0.92140001
9.3591995 1.5588 -0.92510003
9.3795004 1.5013 -0.92129999
9.3650999 1.5219001 -0.9206
9.3648005 1.5597 -0.92110002
9.3821001 1.5017999 -0.92009997
9.3997002 1.4845999 -0.92930001
9.4197998 1.4965 -0.9206
9.3985996 1.4976 -0.9174
9.4139004 1.4978 -0.91850001
9.3997002 1.5046 -0.91280001
9.3785 1.5190001 -0.91250002
9.3933001 1.5265 -0.9052
9.3893995 1.5551 -0.90649998
9.3794003 1.5321 -0.90939999
9.4455996 1.4766999 -0.95459998
9.3743 1.5526 -1.0405
9.3802004 1.5181 -1.0402
9.3992996 1.4683 -0.9939
9.4017 1.4793 -1.0149
9.4194002 1.469 -0.9806
9.4351997 1.4715 -0.9853
9.4303999 1.4938 -0.92430001
9.4263 1.4987 -0.92000002
9.4373999 1.4742 -0.95709997
9.4136 1.5022 -0.9152
9.4443998 1.5049 -0.9188
9.4280005 1.508 -0.91369998
9.4443998 1.4729 -0.9878
9.4499998 1.4959 -0.92619997
