# .PCD v0.7 - Point Cloud Data file format
VERSION 0.7
FIELDS x y z
SIZE 4 4 4
TYPE F F F
COUNT 1 1 1
WIDTH 228
HEIGHT 1
VIEWPOINT 0 0 0 1 0 0 0
POINTS 228
DATA ascii
9.1563997 2.1122 -1.5265
9.1555004 2.1133001 -1.5264
9.1681004 2.1359 -1.3894
9.1681004 2.1343999 -1.3890001
9.1666002 2.1421001 -1.3918
9.1652002 2.1480999 -1.3947999
9.1827002 2.0632999 -1.4069
9.1780996 2.0941999 -1.3882
9.1674004 2.1408999 -1.3909
9.1784 2.0908 -1.3893
9.1539001 2.1155 -1.5262001
9.1778002 2.0871999 -1.3906
9.1703997 2.1208 -1.3859
9.1809998 2.0675001 -1.4025
9.1784 2.0792999 -1.3944
9.2198 2.0725999 -1.5144
9.1707001 2.1156001 -1.3854001
9.1752996 2.1018 -1.3859
9.2045002 2.1932001 -1.457
9.2233 2.0662999 -1.5068001
9.1668997 2.1382999 -1.3890001
9.1761999 2.0810001 -1.3929
9.2363005 2.0558 -1.4694999
9.1807003 2.0604999 -1.408
9.1735001 2.1001999 -1.3859
9.1655998 2.1287999 -1.3868999
9.1996002 2.1752 -1.5107
9.2371998 2.0585001 -1.4396
9.1693001 2.1178999 -1.3846999
9.2257004 2.0657001 -1.5057
9.1424999 2.1772001 -1.4728
9.2054996 2.1933999 -1.4693
9.1735001 2.0954001 -1.3867
9.2247 2.0690999 -1.5105
9.1745005 2.075 -1.3954999
9.2417002 2.0595 -1.4449
9.1414003 2.1781001 -1.4697
9.1758003 2.0673001 -1.4006
9.1726999 2.0883999 -1.3884
9.2412004 2.0569 -1.4596
9.1750002 2.0696001 -1.3987
9.2292995 2.0641999 -1.5031
9.1753998 2.0627 -1.4043
9.1723003 2.0790999 -1.3926001
9.2098999 2.1945 -1.4563
9.2304001 2.0655 -1.5045
9.2032003 2.1894 -1.4914
9.1722002 2.0767 -1.3937
9.2423 2.0596001 -1.4416
9.1608 2.1287999 -1.3862
9.1719999 2.0720999 -1.3963
9.1708002 2.0843999 -1.3892
9.1717997 2.0699 -1.3977
9.2103004 2.1946001 -1.4716001
9.2423 2.0571001 -1.472
9.2454004 2.0590999 -1.4509
9.1618996 2.1201 -1.3843
9.1673002 2.0416999 -1.4734
9.2456999 2.0604 -1.4437
9.2305002 2.0716 -1.513
9.2117996 2.1949 -1.4734
9.1710997 2.0629001 -1.4025
9.1662998 2.0973001 -1.3845
9.1662998 2.0927999 -1.3856
9.2467003 2.0581 -1.459
9.1634998 2.1064 -1.3832
9.1665001 2.0904 -1.3861001
9.2084999 2.1896999 -1.494
9.1569004 2.1293001 -1.3857
9.1632004 2.1050999 -1.3831
9.2370005 2.0634999 -1.5006
9.1633997 2.1040001 -1.3831
9.2103004 2.1821001 -1.5071
9.2185001 2.1940999 -1.4454
9.2107 2.1756001 -1.5152
9.2185001 2.1953001 -1.45
9.1683998 2.0589001 -1.4046
9.2117996 2.1835999 -1.5059
9.2334995 2.0769 -1.5185
9.2140999 2.1954999 -1.4783
9.1592999 2.1066 -1.3825999
9.2158003 2.1959 -1.4755
9.2507 2.059 -1.4581
9.2189999 2.1966 -1.4563
9.2488003 2.0585999 -1.4744999
9.1573 2.1113 -1.3824
9.2365999 2.0741999 -1.5156
9.2468996 2.0581999 -1.4819
9.2143002 2.1877 -1.5009
9.1620998 2.0813999 -1.3882
9.1590004 2.1017001 -1.3821
9.1641998 2.0625999 -1.3999
9.2180996 2.1963999 -1.4773999
9.1555004 2.1096001 -1.3821
9.2543001 2.0611 -1.4507999
9.1599998 2.0843 -1.3865
9.1599998 2.0785 -1.3890001
9.1616001 2.0687001 -1.3946
9.1590996 2.0875001 -1.3849
9.1620998 2.1024001 -1.5258
9.1629 2.1013 -1.5259
9.1604996 2.1068001 -1.526
9.1622 2.1036 -1.5262001
9.1596003 2.1092999 -1.526
9.1816998 2.0460999 -1.476
9.1590004 2.1115999 -1.526
9.1612997 2.1046 -1.5261
9.1633997 2.1001999 -1.526
9.1582003 2.1204 -1.5259
9.1781998 2.1098001 -1.3868999
9.1639004 2.0991001 -1.526
9.1596003 2.1312001 -1.5253
9.1726999 2.1238 -1.3878
9.1515999 2.1781001 -1.477
9.1773996 2.1108 -1.3868001
9.1760998 2.1143999 -1.3868001
9.1654997 2.0959001 -1.5258
9.1758003 2.1155 -1.3868001
9.1584997 2.1152999 -1.5263
9.1687002 2.1438 -1.3936
9.1714001 2.1327 -1.3894
9.2313995 2.0572 -1.4448
9.1675997 2.1499 -1.3967
9.2174997 2.0579 -1.4947
9.1714001 2.1406 -1.3915
9.1525002 2.1784 -1.4786
9.1852999 2.0660999 -1.4061
9.1636 2.0978999 -1.5259
9.1761999 2.1118 -1.3867
9.2147999 2.0655999 -1.507
9.1723003 2.1264 -1.3878
9.1640997 2.0968001 -1.5259
9.1564999 2.1214001 -1.5256
9.2291002 2.0664999 -1.421
9.2305002 2.0545001 -1.461
9.2009001 2.1898999 -1.4442
9.1814003 2.0857999 -1.3926001
9.1752005 2.1129 -1.3866
9.1675997 2.1536 -1.3983001
9.1788998 2.1063001 -1.3866
9.1808996 2.0925 -1.3898
9.1681004 2.1461 -1.3942
9.1808996 2.089 -1.3911
9.1562004 2.1226001 -1.5256
9.1812 2.0833001 -1.3937
9.1668997 2.1508999 -1.3969001
9.1801004 2.0457001 -1.4773
9.1709995 2.1248 -1.3875999
9.1796999 2.0992 -1.3877
9.1851997 2.0627 -1.4087
9.1996002 2.1919999 -1.4577
9.2306995 2.0546 -1.4671
9.1796999 2.098 -1.3879
9.1787004 2.105 -1.3865
9.1820002 2.0778999 -1.3964
9.2006998 2.1888001 -1.438
9.1695995 2.1336 -1.3892
9.1822004 2.0734 -1.3993
9.1552 2.1236 -1.5255001
9.1787004 2.1038001 -1.3865
9.1668997 2.1445999 -1.3934
9.1555996 2.1250999 -1.5256
9.1664 2.1544001 -1.3985
9.1712999 2.1273999 -1.3874
9.1934004 2.1668 -1.5164
9.1947002 2.1908 -1.4766999
9.1705999 2.1287 -1.3877
9.1829996 2.0668001 -1.4043
9.1795998 2.0444 -1.4737999
9.2030001 2.1894 -1.4399
9.1737003 2.1201999 -1.386
9.1809998 2.0753 -1.3977
9.1789999 2.0455 -1.4786
9.1796999 2.0841999 -1.3926001
9.1477003 2.1784 -1.4722
9.1732998 2.1175001 -1.3859
9.1822996 2.0699999 -1.4013
9.2011995 2.1889 -1.4366
9.1659002 2.1568 -1.3997
9.1691999 2.1373999 -1.3896
9.2356005 2.0569 -1.4509
9.2061996 2.1824 -1.4227999
9.2349005 2.0555 -1.4601001
9.2047997 2.1919999 -1.4493999
9.1849003 2.0727999 -1.4012001
9.1616001 2.1059 -1.5262001
9.1597004 2.1105001 -1.526
9.1816998 2.0962999 -1.3894
9.1604004 2.1080999 -1.5261
9.2072001 2.0767 -1.5187
9.1830997 2.0871999 -1.3926001
9.1690998 2.1477001 -1.3956
9.1796999 2.1077001 -1.3871
9.1862001 2.0697 -1.4033999
9.1841002 2.0748 -1.3996
9.1809998 2.1006999 -1.3882
9.1792002 2.1087999 -1.387
9.1820002 2.0939 -1.39
9.1863003 2.0652001 -1.4075
9.1680002 2.1561 -1.4006
9.1849003 2.0718 -1.4017
9.1515999 2.1793001 -1.4713
9.1737003 2.1229 -1.3875999
9.1892996 2.1670001 -1.5146
9.1969004 2.1914001 -1.4588
9.1962996 2.1912 -1.4663
9.1892996 2.1623001 -1.5187
9.1581001 2.1280999 -1.5246
9.1590996 2.1298001 -1.5247999
9.1836996 2.0771 -1.3983999
9.2031002 2.0813999 -1.5224
9.1836004 2.0792 -1.397
9.1823997 2.0906 -1.3914
9.2056999 2.0774 -1.5194
9.2091999 2.0738001 -1.5158
9.1744003 2.1217 -1.3877
9.1721001 2.1315 -1.3895
9.1695004 2.1589 -1.4021
9.1208 2.1208999 -1.4374
9.1297998 2.1255 -1.4193
9.1268997 2.1185 -1.4232
9.1351004 2.1126001 -1.4118
9.1587 2.118 -1.5256
9.1587 2.1192999 -1.5256
9.1826 2.0824001 -1.3954
9.2045002 2.0794001 -1.5208
9.1522999 2.1782999 -1.4756
9.1683998 2.1549001 -1.4
