# .PCD v0.7 - Point Cloud Data file format
VERSION 0.7
FIELDS x y z
SIZE 4 4 4
TYPE F F F
COUNT 1 1 1
WIDTH 1753
HEIGHT 1
VIEWPOINT 0 0 0 1 0 0 0
POINTS 1753
DATA ascii
9.6956997 2.3264 -0.49290001
10.1474 2.4191999 -1.6348
9.9439001 2.2186 -1.5407
10.099 2.5378001 -1.6319
10.297 2.5813 -0.87400001
10.0595 2.6592 -1.6303
9.2384005 2.5353999 -1.5183001
9.2191 2.5882001 -1.52
9.1332998 2.5380001 -1.1674
9.7995005 1.8544 -0.63950002
9.9799995 2.8648 -1.6269
9.9593 2.9186001 -1.6260999
9.6574001 2.4965999 -0.3748
10.3809 1.6392 -1.6453
10.3783 1.6596 -1.6454
9.7398996 2.1580999 0.47220001
10.3776 1.6763 -1.6454
10.3596 1.7463 -1.6440001
9.3240995 2.0713999 -1.4956
9.8853998 1.7826 -1.4777
10.1628 2.4228001 -1.6356
9.2350998 2.5913999 -1.5075001
9.7965002 1.8676 -0.63749999
10.2113 2.8390999 -0.87400001
9.9789 2.8941 -1.6266
9.0986996 2.0592 -0.977
10.3582 1.7735 -1.6435
9.6197996 2.6598001 -0.3603
10.3596 1.784 -1.6437
9.2999001 1.9797 -1.4864
9.9401999 2.0854001 -1.546
10.3227 2.3427 -0.87489998
10.0996 2.4163001 -1.6335
9.6904001 2.3483 -0.4885
9.8794003 1.7999001 -1.4785
10.1535 2.4219 -1.6342
9.3594999 1.6581 -1.4273
9.4828997 1.9628 -1.5192
9.6864004 2.3638999 -0.4948
9.8788996 1.8135999 -1.4772
10.1439 2.4505999 -1.6324
9.3373003 1.6578 -1.4261
9.4663 1.9658 -1.517
9.6799002 2.3785999 -0.4896
10.1398 2.4593999 -1.6331
9.8780003 1.8333 -1.476
9.6820002 2.3803999 -0.49790001
10.1402 2.4711001 -1.6323
9.6781998 2.3999 -0.49169999
10.1384 2.4723001 -1.6317
10.2842 2.6426001 -0.87220001
10.0584 2.7196 -1.6296
9.2598 2.5341001 -1.5061001
9.7936001 1.8803 -0.6372
9.8374004 2.5912001 -1.5405999
9.9799004 2.9189 -1.6259
9.7588997 2.1389999 0.4761
9.6556997 2.5049 -0.3757
10.3995 1.6581 -1.6456
9.7594004 2.1431999 0.4799
9.6505003 2.5302 -0.36230001
10.3991 1.6784 -1.6454
9.6252003 2.6359999 -0.37940001
9.1176004 2.0441 -0.97710001
10.3774 1.7668999 -1.6439
9.6604996 2.4837 -0.81940001
9.0792999 2.0967 0.40650001
9.2853003 2.2249 -1.492
10.1851 2.6677001 -0.85360003
9.9497995 2.7216001 -1.6199
9.6641998 2.5032001 -0.81980002
9.2883997 2.2595 -1.4931999
10.0312 2.4546001 -1.6134
9.4194002 2.3074999 -1.5151
9.4224005 2.3185 -1.5157
9.4769001 2.0012 -1.5189
9.6752005 2.4124999 -0.49110001
10.1375 2.4833 -1.6323
9.7093 1.3997999 -1.6413
9.4375 2.3324001 -1.5185
9.9261999 2.1747 -1.5451
10.0797 2.4988 -1.6321
9.6721001 2.4273 -0.4964
10.1308 2.5193 -1.6316
10.0578 2.7421999 -1.6284
10.2704 2.6914001 -0.87050003
10.0379 2.7586999 -1.6267
10.0424 2.7704999 -1.6279
10.033 2.7995 -1.6274
9.2997999 2.6083 -1.5099
9.1584997 2.5448999 -1.1661
9.8411999 2.5785 -1.5404
9.9991999 2.8942001 -1.6267
10.2307 2.8399999 -0.87050003
9.9974003 2.9198 -1.6267999
9.7791996 2.1315 0.47940001
10.4127 1.6564 -1.6459
9.7446003 2.1605 0.47870001
9.6463003 2.5493 -0.3793
10.3982 1.6966 -1.6447001
9.6218996 2.6565001 -0.36340001
9.1080999 2.0613999 -0.97659999
10.379 1.7937 -1.6435
9.8284998 1.7255 -0.63819999
10.2598 2.6819999 -0.86979997
9.8697996 2.4379001 -1.5426
10.0189 2.7534001 -1.6287
9.4189997 2.7481999 -1.6202
9.9259005 1.7534 -1.0189
9.1213999 2.1196001 -1.4796
9.5553999 1.3968 -1.6392
9.6563997 2.5969999 -0.81830001
9.9373999 1.6526 -0.95829999
9.2757998 2.3381 -1.493
9.5586996 1.4155999 -1.6390001
9.2776003 2.3499999 -1.4934
9.7395 2.2175 -1.471
10.248 2.7921 -0.86750001
10.0199 2.8508 -1.6276
9.6399002 1.4345 -1.6401
9.7245998 2.6398001 -0.83859998
9.2158003 2.0574999 -1.4294
9.3556995 2.3752 -1.5065
9.8065996 1.8232 -0.6358
10.2316 2.7990999 -0.87669998
9.8481998 2.5371001 -1.5414
9.9998999 2.855 -1.6274
9.7193003 2.6396999 -0.82480001
9.1993999 2.0564001 -1.4239
9.3381996 2.3721001 -1.5037
10.005 2.5459001 -1.6109
9.7398005 2.2311001 -1.4648
10.2457 2.8018999 -0.8793
10.0174 2.8650999 -1.6275001
9.6386003 1.4500999 -1.6403
9.7346001 2.6558001 -0.82249999
9.2156 2.0599999 -1.4249001
9.3492002 2.3966999 -1.506
9.8030005 1.8403 -0.63859999
10.2208 2.8 -0.87760001
9.8445997 2.5572 -1.541
9.9996004 2.8745 -1.6269
9.7198 2.6540999 -0.83719999
9.3332005 2.3898001 -1.5033
9.8796997 1.5793 -0.61409998
10.0532 2.5815001 -1.6196001
9.7470999 2.1982 0.3567
9.8394003 2.0167999 -1.4792
9.6403999 2.5611 -0.5
10.1037 2.6472001 -1.6301
9.6148996 2.6722 -0.49520001
10.0764 2.74 -1.6291
9.6046 2.7932999 -0.45730001
10.2179 1.6171 -1.6439
9.3396997 2.5511999 -1.5111001
9.3182001 2.5466001 -1.5075999
9.5197001 1.5888 -1.6364
9.2383003 2.5342 -1.4982001
9.5588999 1.6309 -1.6363
9.2616997 2.5681 -1.4997
9.2974005 2.5834 -1.506
10.1999 1.6476001 -1.6438
9.3163004 2.5926001 -1.5093
9.6632996 2.5509 -0.81940001
9.9582996 1.6184 -0.95649999
9.2959995 2.2837 -1.4949
9.9537001 2.7758999 -1.6128
10.1983 1.6758 -1.6429
9.3106003 2.6099999 -1.5085
9.2580004 2.5964999 -1.5186
9.2599001 2.6048 -1.5165
9.5952997 1.3967 -1.6396
9.3037996 2.3355 -1.4974
9.9789 2.8083 -1.6176
9.5578003 2.8144 -0.4991
9.1795998 2.5520999 -1.1734
10.0191 2.8899 -1.6271
10.4198 1.6831 -1.6453
9.7594004 2.2444 0.46110001
9.1331997 2.0488 -0.96869999
10.3994 1.7707 -1.6440001
9.1338997 2.0671999 -0.97640002
10.3997 1.7857 -1.6445
9.8775997 2.3987 -1.5420001
9.8369999 1.6885999 -0.63959998
10.0167 2.7186 -1.6292
9.4195004 2.7063999 -1.6205
9.1394997 2.0704 -1.4788001
9.7355003 2.5165 -0.82669997
9.3408003 2.2565999 -1.5016
10.2531 2.6649001 -0.86919999
9.8336 1.7025 -0.63929999
9.8732996 2.4187 -1.5427001
10.0197 2.7383001 -1.6278
9.4181004 2.7274001 -1.6203001
9.132 2.0813 -1.4799
9.5588999 1.4775 -1.6381
9.1389999 2.0994999 -1.4125
9.2791996 2.4079001 -1.495
9.5563002 1.4949 -1.6381
9.1388998 2.1199 -1.4096
9.2610998 2.4372001 -1.4928
9.6370001 2.5783999 -0.49939999
10.0999 2.6592 -1.6303999
10.0758 2.6594 -1.6311001
9.5595999 1.5116 -1.6378
9.1395998 2.1394 -1.4125
9.2663002 2.4419999 -1.4937
9.9968996 2.6372001 -1.6116
10.044 2.6578 -1.6199
9.6324997 2.5946 -0.4982
10.0989 2.6654999 -1.6298
10.0597 2.6789999 -1.6301
10.0795 2.6714001 -1.6305
9.6267004 2.6242001 -0.49950001
9.1018 2.0429001 -1.0822001
10.0853 2.7119999 -1.6296
10.0799 2.7188001 -1.6277
10.0598 2.7302999 -1.6295
9.1197996 2.0662 -1.0846
9.6208 2.6459 -0.49700001
10.086 2.7256999 -1.6293
9.6174002 2.6591001 -0.498
9.0974998 2.0611 -1.0805
10.0798 2.7370999 -1.6288
10.0367 2.7302999 -1.6294
9.5398998 1.591 -1.6367
9.2514 2.5318 -1.4985
9.4998999 1.6324 -1.6349
9.2119999 2.5757 -1.4916
9.5199003 1.6488 -1.6353
9.2325001 2.5906 -1.4994
9.5376997 1.6727 -1.6355
9.2594995 2.6057999 -1.4994
9.2791004 2.6101999 -1.5134
9.5739002 1.3983999 -1.6392
9.9558001 1.6418999 -0.95660001
9.2947998 2.3369 -1.4958
9.9452 2.8095 -1.6109
10.0195 2.9103 -1.6267
10.4198 1.7182 -1.6447999
10.4191 1.7377 -1.6447999
9.3587999 1.7084 -1.4986
9.3552999 1.7211 -1.4953001
9.3575001 1.7522 -1.4962
9.3494997 1.7687 -1.4946001
9.3373003 1.7977999 -1.492
9.3381004 1.8025 -1.4926
9.3336 1.8386 -1.4927
9.3313999 1.8578 -1.4926
9.3336 1.8792 -1.4938999
9.3196001 1.8788 -1.4852999
9.3390999 1.8875999 -1.495
9.3185997 1.8961999 -1.4906
9.3184996 1.902 -1.4911
9.6983004 2.1903 -0.81669998
9.6587 1.4912 0.1133
9.3177004 1.9286 -1.4912
9.3176003 1.956 -1.492
9.3189001 1.993 -1.4931
9.2993002 1.9971 -1.489
9.2993002 2.0222001 -1.4902
9.2777996 2.0638001 -1.4865
9.8822002 2.3861001 -1.5425
10.0385 2.7102001 -1.6295
9.4394999 2.7070999 -1.6206
9.1505003 2.0606 -1.4793
9.5192003 1.5545 -1.6368999
9.2343998 2.4907999 -1.4897
9.5377998 1.5603 -1.6371
9.2565002 2.5158 -1.4937
9.5197001 1.579 -1.6364
9.2370005 2.5116999 -1.4903001
9.4983997 1.6578 -1.6348
9.2184 2.5906 -1.5
9.2687998 2.622 -1.5003
10.4447 1.6767 -1.6459
10.4378 1.6987 -1.6457
10.4398 1.7049 -1.6454999
9.7606001 2.2420001 0.4646
10.4198 1.7679 -1.6444
10.1387 2.7320001 -1.5009
10.4193 1.7866 -1.6447999
10.135 2.7484 -1.5003
10.4144 1.8012 -1.6444
9.9993 2.0346999 -1.6368999
9.8568001 1.7072999 -1.5563999
9.6279001 2.615 -0.49700001
10.0894 2.6974001 -1.6296
9.4989004 2.6942 -1.6217999
9.7391996 2.6336999 -0.8671
9.2149 2.0510001 -1.4782
10.2717 2.6231999 -0.87120003
9.8875999 2.362 -1.5425
9.8423004 1.6631 -0.63429999
10.0374 2.6919999 -1.6299
9.4399996 2.6974001 -1.6209
9.1595001 2.0557001 -1.4787
10.2483 2.7328999 -0.86860001
9.8209 1.7604001 -0.62840003
9.8649998 2.4642 -1.5425
10.0168 2.7979 -1.6282001
9.1349001 2.1587 -1.4795001
9.5172997 1.6731 -1.6353
9.2376003 2.6154001 -1.4938
10.4586 1.688 -1.6463
10.4394 1.7397 -1.645
9.1739998 2.0567999 -0.97570002
10.4376 1.7785 -1.645
10.0195 2.0364001 -1.6372
9.8727999 1.71 -1.5574
9.7398996 2.1592 0.0286
9.2594004 2.276 -1.4884
9.5198002 1.4286 -1.6382999
9.7187996 2.2579999 0.039500002
9.2383003 2.3629999 -1.487
9.2876997 2.6308999 -1.5003999
9.6118002 2.7939999 -0.49669999
10.0766 2.8769 -1.6281
9.1750002 2.0764999 -0.9763
10.1539 2.7233 -1.5039999
10.4399 1.7991 -1.6445
10.1593 2.7442999 -1.5042
10.4393 1.8017 -1.6445
10.0372 2.0350001 -1.638
9.7073002 2.2688999 -0.57539999
9.8922997 1.7134 -1.5588
10.2812 2.6224999 -0.87190002
10.0598 2.691 -1.6296
9.4584999 2.6968999 -1.6215
9.1794004 2.0480001 -1.4763
9.4994001 1.5156 -1.6368999
9.6997995 2.3376999 0.022
9.2199001 2.4528 -1.4859
9.4786997 1.5977 -1.6357
9.6795998 2.4198 0.037999999
9.1976995 2.5350001 -1.4872
9.6997995 1.4791 -1.6401
9.7961998 2.6775999 -0.82489997
9.4118004 2.4031999 -1.516
9.6000004 2.8139 -0.493
10.079 2.8959999 -1.6279
9.1857996 2.0594001 -0.97549999
10.4585 1.7732 -1.6453
10.0791 2.6991 -1.6298
9.4796 2.6875 -1.6219
9.1982002 2.0486 -1.4647
10.4793 1.7381999 -1.6459
9.1975002 2.062 -0.9752
10.174 2.7300999 -1.5071
10.4591 1.7973 -1.6447001
10.1147 2.8766 -1.6291
9.9343004 1.7207 -1.5606
9.6399002 2.4272001 -1.627
9.7375002 2.0553 -0.78009999
9.3402004 1.7801 -1.4717
9.5992002 2.5186999 -1.6256
9.3198004 1.8788 -1.4777
9.7765999 2.7707 -1.5712
9.9534998 1.724 -1.5603
10.5185 1.7947 -1.6461999
9.5193005 2.6940999 -1.6217999
9.7412996 2.6368999 -0.86760002
9.2363005 2.0558 -1.4694999
10.5466 1.7575999 -1.6467
10.5382 1.8226 -1.6468
9.4041004 2.7070999 -1.62
9.6503 2.6401 -0.84719998
9.1396999 2.0659001 -1.4561
9.8333998 1.7088 -0.61159998
10.0026 2.7284999 -1.6178
9.4198999 2.7376001 -1.6198
9.1289997 2.0829999 -1.4575
9.4197998 2.7550001 -1.62
9.1218004 2.1173 -1.4404
9.6318998 2.7307999 -1.54
9.6389999 2.3504 -1.628
9.7368002 1.9608001 -0.78039998
9.3513002 1.7191 -1.479
9.6384001 2.3780999 -1.6274
9.7376003 1.9892 -0.78030002
9.3500004 1.7327 -1.4759001
9.6389999 2.3957 -1.6273
9.7362003 2.0118001 -0.78049999
9.3465996 1.7502 -1.4730999
9.6391001 2.4147 -1.6274
9.7358999 2.0276999 -0.78049999
9.3450003 1.7642 -1.4705
9.6196003 2.4366 -1.6264
9.3369999 1.7945 -1.4793
9.6194 2.4576001 -1.6263
9.3330002 1.8154 -1.4796
9.6194 2.4899001 -1.626
9.3253002 1.8592 -1.4734
9.6194 2.5167 -1.6255
9.3245001 1.8652 -1.4792
9.6192999 2.5350001 -1.6256
9.3204002 1.885 -1.4792
9.3024998 1.9849 -1.4766001
9.2993002 1.99 -1.4793
9.5580997 2.7183001 -1.6223
9.2793999 2.0627 -1.4744
9.4193001 2.7765999 -1.6193
9.1241999 2.1396999 -1.4457999
9.6196003 2.4688001 -1.6264
9.3306999 1.8269 -1.479
9.5993004 2.5297 -1.6253999
9.3197002 1.8871 -1.4795001
9.5986004 2.5494001 -1.6249
9.3154001 1.9105 -1.478
9.5993996 2.5799 -1.6243
9.6925001 2.1997001 -0.79159999
9.3102999 1.9348 -1.4792
9.5994997 2.5968001 -1.6241
9.3078003 1.9513 -1.4780999
9.5997 2.6103001 -1.6241
9.3044996 1.9696 -1.4798
9.2959995 2.0156 -1.4784
9.2934999 2.0322001 -1.4798
9.1595001 2.052 -1.4586
9.4203997 2.7198 -1.62
9.6775999 2.6475999 -0.8527
9.1506004 2.0606999 -1.4401
9.4191999 2.7816 -1.6195
9.1346998 2.1599 -1.4426
10.1396 2.9054 -1.6289001
9.7398996 2.1592 0.0427
9.2446003 2.2772999 -1.4795001
9.7187996 2.2593 0.040800001
9.2230997 2.3799 -1.479
9.8599997 1.5998 -0.50349998
10.3185 1.6696 -1.6445
9.6997995 2.3376999 0.054900002
9.2103996 2.4528999 -1.4787
9.1792002 2.0467999 -1.4529999
9.8399 1.6783 -0.50260001
10.2979 1.7534 -1.6431
9.6798 2.4198999 0.050500002
9.1926003 2.5397999 -1.4728
9.7608004 2.1408999 0.479
10.4193 1.6714 -1.6456
9.7573996 2.7651999 -1.5551
9.7285004 2.6308 -0.85369998
9.2145996 2.0522001 -1.4506
9.1982002 2.0497999 -1.4456
9.4596004 2.8388 -1.619
9.1745005 2.1835999 -1.4431
9.6996002 2.3432 -1.6296999
9.8957996 1.581 0.0548
9.4070997 1.7009 -1.4612
9.7161999 2.3566 -1.6289999
9.4202995 1.7079 -1.4631
9.7341995 1.9898 -0.77999997
10.001 2.6282001 -0.93970001
9.3505001 1.7289 -1.4566
9.7356997 2.0183001 -0.77969998
9.4912004 2.0627 -1.5221
9.3455 1.7592 -1.4597
9.7184 2.1445999 -0.7773
9.3203001 1.8825999 -1.4589
9.8396997 1.6591001 -0.73930001
9.5908003 1.7053 -1.4871
9.5003004 2.0283 -1.5237
9.7568998 1.9748 -0.77999997
9.375 1.7113 -1.4555
9.4805002 2.0889001 -1.5211
9.7390003 2.0202999 -0.77960002
9.3430996 1.7711999 -1.4594001
9.7186003 2.073 -0.77859998
9.3333998 1.8189 -1.4596
9.2356005 2.0569 -1.4509
9.7793999 1.9391 -0.778
9.5300999 1.9979 -1.5275
9.3959999 1.6694 -1.4569
9.8448 1.6423 -0.73470002
9.6190996 1.7103 -1.4899
9.7199001 2.0973001 -0.77880001
9.3339005 1.8214 -1.4589
9.7179003 2.1113 -0.77789998
9.3259001 1.8593 -1.4566
9.7187004 2.1336 -0.77770001
9.3225002 1.8757 -1.46
9.6997004 2.1335001 -0.77719998
9.3191996 1.8787 -1.4500999
9.3191004 1.887 -1.4595
9.3140001 1.9171 -1.46
9.1594 2.0557001 -1.4394
9.6377001 1.7161 -1.4929
9.3127003 1.9288 -1.4583
9.6844997 2.2163 -0.77719998
9.3099003 1.9450999 -1.4596
9.6992998 2.2221999 -0.77649999
9.3058996 1.9687001 -1.4552
9.6984997 2.257 -0.77579999
9.4527998 2.3182001 -1.5206
9.3008003 1.9903001 -1.4582
9.6798 2.2539001 -0.77590001
9.2993002 1.9981 -1.457
9.6792002 2.2780001 -0.77630001
9.2941999 2.0199001 -1.46
9.6787996 2.2934999 -0.7762
9.2931004 2.0309 -1.4568
9.6596003 2.3225 -0.77530003
9.2798004 2.0643001 -1.4592
9.6598997 2.6526 -0.83270001
9.1396999 2.0739 -1.4341
9.7173996 2.7550001 -1.5374
9.6597004 1.4270999 -1.6401
9.2371998 2.0585001 -1.4396
9.7265997 2.7577 -1.5373
9.1778002 2.1824 -1.4329
9.7385998 2.7609999 -1.5375
9.6289997 2.6041 -0.59990001
9.6777 1.7257 -1.4916
9.5369997 2.9173999 -1.6195
9.7398005 2.1592 0.079899997
9.6399002 2.5373001 -0.76529998
9.2459002 2.2751 -1.4567
9.7486 2.7639 -1.5375
9.7560997 2.2207999 0.2411
9.6989002 1.7244999 -1.4960001
9.6793003 2.6708 -0.82389998
9.1431999 2.0804 -1.4213001
9.6576004 2.6768 -0.82359999
9.1399002 2.0809 -1.4241
9.1301003 2.1192999 -1.4207
9.8213997 1.7566 -0.63940001
10.256 2.7060001 -0.8696
10.0197 2.7709999 -1.6285
9.8671999 2.4512 -1.5414
9.9994001 2.7827001 -1.6283
10.2373 2.7344 -0.86739999
9.8197002 1.7638 -0.63940001
9.8586998 2.4798 -1.5418
9.9842997 2.8152001 -1.6187
9.8167 1.7802 -0.61360002
9.8499002 2.4909999 -1.5396
9.9965 2.8185999 -1.6274
10.2387 2.7464001 -0.86739999
9.816 1.7825 -0.63709998
9.8585997 2.4891 -1.5408
9.9933996 2.8345001 -1.6279
9.8102999 1.8078001 -0.639
10.235 2.7664001 -0.86619997
9.8535995 2.5174999 -1.5418
9.7198 2.2595999 0.076499999
9.6190996 2.6378 -0.76609999
9.2233 2.3787999 -1.459
10.4361 1.6701 -1.6458
9.7788 2.7713001 -1.5405999
9.8192997 1.7819999 -0.45339999
10.2798 1.8778 -1.5943
9.1337004 2.1394 -1.4204
9.1389999 2.5841999 -1.1756999
9.8997002 1.5391001 0.21690001
9.7867002 1.9166 -0.62779999
9.9791002 2.9270999 -1.6260999
9.8345003 2.6024001 -1.5403
9.6996002 2.339 0.078400001
9.5993996 2.7196 -0.76310003
9.2145996 2.4554999 -1.4442
9.8396997 1.6978 0.23029999
9.7791996 2.7714 -1.539
9.8143997 1.8113 -0.44530001
10.2736 1.8807 -1.5834
10.1991 2.0560999 -1.6389
10.0513 1.7397 -1.5429
9.6789999 2.6542001 -0.82440001
9.1596003 2.0603001 -1.4294
9.1393003 2.1598001 -1.4304
9.7910995 1.8976001 -0.60900003
9.8386002 2.5904 -1.5391001
9.8978996 1.5389 0.22
9.7896996 1.9033999 -0.61870003
9.8362999 2.6097 -1.5395
9.9013004 1.5394 0.20900001
9.1547003 2.5885999 -1.1655999
9.9996004 2.9331 -1.6260999
9.849 2.6145999 -1.5413001
10.4589 1.7276 -1.6456
9.3554001 2.517 -1.4653
9.9216995 2.6787 -1.5544
9.8402996 2.5732999 -1.54
9.6187 2.6580999 -0.43709999
10.0747 2.7319 -1.5782
9.2342997 2.5144999 -1.4471999
9.5791998 2.7939999 -0.7676
9.6798 2.4198999 0.063000001
9.1918001 2.5395999 -1.4589
10.2908 1.8799 -1.5893
9.9363003 2.2184 -1.5379
9.6959 2.6296 -0.82179999
9.1799002 2.0495 -1.439
9.6991997 2.6535001 -0.82789999
9.1709003 2.0606 -1.4202
9.1464005 2.1592 -1.4202
9.1969995 2.1847999 -1.4298
9.6201 2.6533 -0.4531
9.1198997 2.0639999 -1.0432
10.0957 2.7388 -1.5802
9.8797998 1.6187 0.2261
9.7714005 1.9839 -0.61979997
9.8143997 2.6986001 -1.5395
9.8785 1.6354001 0.2262
9.7667999 2.0011001 -0.61970001
9.8168001 2.7135999 -1.5385
9.3070002 2.5887001 -1.4596
9.2200003 2.5671999 -1.446
10.334 1.8441 -1.5843
9.1753998 2.1796999 -1.4279
10.0987 2.756 -1.5816
9.8486996 2.7237999 -1.5436
9.2447996 2.5755999 -1.4488
9.8597002 1.6916 0.2272
9.7531996 2.0664001 -0.61970001
9.7959003 2.7760999 -1.5367
9.9414997 2.2209001 -1.5365
9.1861 2.1798 -1.4246
10.1129 2.7599001 -1.5801001
9.6226997 2.6389999 -0.45429999
10.0985 2.7196 -1.5805
9.5598001 1.5369999 -1.6375999
9.1399002 2.1494999 -1.4189
9.8541002 2.3383999 -1.5266
10.02 1.9273 -0.93830001
9.3743 2.6115999 -1.4675
9.8729 1.688 0.22310001
9.8084002 2.7797 -1.5354
9.8197002 1.7498 -1.5003
9.8755999 2.21 -1.5222
9.8077002 1.8207 -0.61540002
9.8470001 2.5395999 -1.5397
9.6189003 1.4385 -1.6393
9.1920004 2.0581 -1.4184
9.2030001 2.1894 -1.4399
9.6077995 2.7083001 -0.4357
10.0732 2.7832 -1.5719
9.2890997 2.5878999 -1.451
9.8687 1.7028 0.22310001
9.8144999 2.7814 -1.5347
9.7599001 2.2406001 0.39559999
9.1372004 2.0497 -1.0405999
10.1195 2.7154 -1.5827
9.6470003 1.4514 -1.6402
9.2291002 2.0664999 -1.421
9.4547997 1.9608999 -1.5148
9.3177996 1.6543 -1.4201
9.8381004 1.7531 -1.5015
10.0903 2.7837999 -1.46
10.3696 1.8518 -1.5814
9.8570995 1.7514 -1.5123
9.6598997 2.4741001 -0.4788
9.9773998 2.2327001 -1.5362
9.7313004 2.2458999 0.41370001
9.6236 2.6356001 -0.43889999
9.1160002 2.0462 -1.0349
10.0874 2.7068 -1.5793999
9.6394997 1.4592 -1.6398
9.2109003 2.0648 -1.4155999
9.8494997 1.6406 -0.5442
10.0384 2.6605999 -1.5574
9.7989998 1.7063 -1.6386
9.5198002 2.6493001 -1.4819
9.8197002 1.7832 -0.4262
10.2796 1.8701 -1.58
9.5798998 1.4581 -1.6386
9.9590998 1.7130001 -0.9526
9.1594 2.0771999 -1.4085
9.7363997 2.2189 0.40009999
9.6330004 2.5977001 -0.43540001
10.0877 2.6751001 -1.5638
10.0997 2.7412 -1.5724
9.8304005 1.7272 -0.55059999
10.0193 2.7420001 -1.5561
9.8176003 1.6857001 -1.6387
9.5377998 2.6364999 -1.4833
9.6995001 2.3069999 -0.5309
9.8788004 1.7552 -1.5108
9.8393002 1.7559 -1.4989001
10.3616 1.8516999 -1.5750999
9.6196003 1.5538 -1.638
9.1952 2.1752999 -1.4158
10.0626 2.6696999 -1.5582
9.1188002 2.6788001 -1.0135
9.7714996 1.9976 -0.47580001
10.0966 1.7474999 -1.5367
9.8156004 1.8 -0.4368
10.2799 1.8832 -1.5696
9.7297001 2.1854999 -0.40380001
10.1817 2.2785001 -1.5592999
9.6091003 2.6995001 -0.42680001
10.0746 2.7781 -1.5628999
9.8374996 1.7212 -1.6388
9.5588999 2.6615 -1.4832
9.8204002 1.781 -0.42429999
10.2996 1.8788 -1.5700999
9.7592001 2.1940999 -1.2797
10.3195 1.8865 -1.5664999
9.7396002 2.1886001 -1.2708
10.2996 1.8828 -1.5786
9.5986004 1.4355 -1.6389
9.1798 2.0578001 -1.4198999
9.7398996 2.2334001 0.43560001
9.6296997 2.6155 -0.40470001
10.087 2.6805999 -1.5585001
9.6218996 2.6500001 -0.4337
9.1155005 2.063 -1.0382
10.0994 2.7398 -1.5757
9.6159 2.6724999 -0.4359
10.0785 2.7581999 -1.5603
9.8385 1.6892999 -1.6390001
9.5594997 2.6387 -1.4837
9.8576002 1.7395999 -1.6390001
9.5717001 2.6651001 -1.4836
9.8168001 1.7543 -1.4878
9.6069002 2.717 -0.29980001
10.3463 1.8554 -1.5676
10.3348 1.848 -1.5664001
9.8016996 1.7614 -1.4855
9.7931004 1.7635 -1.4843
10.317 1.8796 -1.5659
9.5999002 2.7320001 -0.2859
10.3394 1.8708 -1.5676
9.6015997 2.7397001 -0.29859999
10.3561 1.875 -1.5702
10.3783 1.883 -1.574
9.8355999 1.7832 -1.4907
9.8181 1.7948 -1.4888
9.7995996 1.7926 -1.4863
9.5972004 2.7595 -0.29800001
9.7688999 2.1951001 -1.2778
10.3394 1.8941 -1.5686001
10.3427 1.9001 -1.5686001
10.3603 1.9046 -1.5709
10.4048 1.9169 -1.5781
10.3987 1.909 -1.577
9.1238003 2.6789999 -1.0186
10.105 1.749 -1.5362999
9.5948 2.7722001 -0.29359999
9.7628002 2.2130001 -1.2790999
10.3364 1.9169 -1.5681
10.0748 1.7437 -1.5398999
9.7347002 2.2067001 -1.2675
10.2892 1.9096 -1.561
10.3193 1.9323 -1.5657001
9.1464996 2.5365 -0.94440001
9.8074999 1.8412 -0.40689999
10.2644 1.928 -1.5575
9.5780001 2.8152001 -0.29350001
9.1983004 2.5520999 -0.97860003
10.3168 1.9531 -1.5659
9.5797005 1.4998 -1.6377
9.9497995 1.7562 -0.94190001
9.1531 2.1003001 -1.4008
9.8566999 2.3282001 -1.5127
10.0995 2.7625999 -1.5736001
10.056 1.7405 -1.5206
9.7986002 1.7448 -1.499
10.3891 1.8591 -1.5726
9.8269997 1.7671 -1.489
10.389 1.8617001 -1.573
9.8555002 1.7783999 -1.4922
9.8594999 1.784 -1.4933
9.8598003 1.8049999 -1.4938999
9.6799002 2.3889 -0.51639998
9.8599005 1.834 -1.4943
9.6697998 2.4366 -0.51999998
9.8590002 1.8665 -1.4948
9.1794996 2.5969999 -0.97820002
10.2839 1.9851 -1.5613
9.1795998 2.6018 -0.97390002
10.2978 2.0081999 -1.564
9.1476002 2.6201999 -0.94220001
10.2688 2.0229001 -1.5598
10.3156 2.0479 -1.567
10.265 2.0407 -1.5598
9.8562002 1.7525001 -1.4993
10.2992 2.0641999 -1.5651
9.6982002 2.3148999 -0.51709998
9.8796997 1.758 -1.4991
10.3038 2.0664999 -1.5659
10.2469 2.0736001 -1.5578001
9.1195002 2.7074001 -0.95889997
9.7638998 2.0323 -0.41049999
9.8161001 2.7305 -1.339
10.2383 2.1047001 -1.5568
9.5791998 1.4661 -1.6390001
9.1598997 2.0876 -1.4016
9.5798998 1.5183001 -1.6382999
9.1545 2.1392 -1.4002
9.5992002 1.5532 -1.6377
9.1795998 2.1737001 -1.4165
10.1997 2.5771 -0.83929998
9.8093996 2.3145001 -1.5037
10.0831 2.3803999 -1.5444
9.7550001 2.2395 0.40009999
10.1189 2.6995001 -1.5608
9.6583996 1.4581 -1.6397001
9.2252998 2.0668001 -1.4193
9.7596998 2.2511001 0.4174
10.1186 2.7168 -1.5745
10.1088 2.7224 -1.5602
9.1174002 2.7262001 -0.94840002
9.7603998 2.0453999 -0.41949999
10.2285 2.1313 -1.5558
10.2387 2.1522 -1.5579
9.6736002 2.4168999 -0.51959997
9.8596001 1.8545001 -1.4949
10.2964 2.1768999 -1.5664001
10.2746 2.1751001 -1.5632
10.2333 2.1677001 -1.5569
10.2455 2.1849999 -1.5592
10.2778 2.1942999 -1.5639
10.2235 2.1877999 -1.5561
9.7460003 2.1127 -0.41949999
10.2192 2.1907001 -1.5556
9.7420998 2.1283 -0.41010001
10.2192 2.2021999 -1.5556
9.7692003 2.2190001 0.3671
9.8594999 2.0281999 -1.4549
9.9954004 2.3584001 -1.5306
9.5938997 2.7598 -0.50639999
9.7778997 2.1981001 -1.4949
9.8030005 1.8418 -0.61720002
9.8458004 2.5536001 -1.5398
9.0991001 2.0592999 -1.0304
10.0612 2.7028 -1.5754
9.6197996 1.4562 -1.6395
9.9891005 1.7181 -0.95230001
9.1989002 2.0609 -1.4167
10.0452 2.7012 -1.573
9.5943003 1.459 -1.6391
9.9763002 1.7158999 -0.95270002
9.1796999 2.0727999 -1.4033999
9.7987003 1.8606 -0.61210001
9.8389997 2.5754001 -1.5398999
10.0514 2.7281001 -1.5749
9.5995998 1.4732 -1.6391
9.1736002 2.0804 -1.4001
9.5754995 1.5323 -1.6379
9.1589003 2.1598001 -1.4097
9.8003998 2.3087001 -1.4986
9.7302999 2.2198999 0.4391
9.6332998 2.599 -0.4122
10.0863 2.6789999 -1.5533
10.1172 2.7598 -1.5656
9.5199003 1.9079 -1.6324
9.0999002 2.5352001 -1.4169
9.6927996 2.3357 -0.51990002
9.8797998 1.7740999 -1.495
9.6125002 2.6798 -0.51880002
9.7987003 2.1175001 -1.4905
10.246 2.223 -1.5592
10.2309 2.2211001 -1.5569
9.6126003 2.6812999 -0.51719999
9.7976999 2.1371 -1.4910001
10.2491 2.2426 -1.5599
10.2071 2.2363 -1.5536
10.2493 2.2583001 -1.5601
10.2087 2.2567 -1.5541
9.1598997 2.1405001 -1.398
9.5995998 1.5398999 -1.638
9.1695004 2.1589 -1.4021
9.7795 2.1535001 -1.4876
9.8976002 1.7548 -1.3808
9.7018003 2.3039999 -0.41949999
10.1669 2.395 -1.5513
10.1594 2.7012999 -1.5613
9.7455997 2.2399001 0.4305
10.119 2.6995001 -1.5575
9.7588997 2.2189 0.37450001
9.8387003 2.0393 -1.4556
9.9631996 2.3557999 -1.5307
9.7598 2.1930001 -1.4921
9.9963999 1.7194 -0.93239999
9.1847 2.0761001 -1.3997
9.1924 2.5992 -1.1947
9.7565002 2.2971001 -1.487
10.2258 2.4379001 -1.5599999
10.2 2.4354999 -1.5561
10.2726 2.4539001 -1.5669
10.332 2.4719 -1.5757999
10.2161 2.4546001 -1.5588
10.1777 2.4507 -1.5531
9.6856003 2.3745999 -0.40889999
10.159 2.4502001 -1.5504
10.1666 2.4689 -1.5518
9.6817999 2.3907001 -0.40700001
10.1524 2.4625001 -1.5495
10.1697 2.7026 -1.5645
10.3283 1.7862999 -1.5534
9.3386002 1.6568 -1.4092
9.9175997 1.7608 -1.4937
9.7588997 2.2277 0.373
9.8397999 2.0574 -1.4543
9.9743996 2.3619001 -1.5359
9.7554998 2.2052 -1.4819
9.7395 2.1384001 -0.35960001
10.1996 2.2042 -1.4929
10.3225 2.5274 -1.5753
10.2529 2.5339 -1.5652
9.9576998 1.7573 -1.6393
9.6764002 2.6872001 -1.4883
9.6197004 2.6598001 -0.27579999
10.3488 1.7898999 -1.5548
9.7199001 2.2197001 -0.3583
10.3168 2.6005001 -1.5754
10.2985 2.6057999 -1.5726
10.1913 2.5888 -1.5566
10.2578 2.6103001 -1.5669
9.7798004 2.112 0.433
9.6601 2.4825001 -0.40990001
10.1252 2.5794001 -1.5470999
10.1829 2.6091001 -1.5558
10.1664 2.6076 -1.5534
10.1383 2.599 -1.5491
9.7586002 2.1206999 0.43939999
9.6561003 2.5014 -0.41929999
10.1148 2.5974 -1.546
10.1337 2.605 -1.5486
10.1377 2.6215 -1.5495
9.6480999 2.5334001 -0.41999999
10.1161 2.6199 -1.5463001
9.7599001 2.2512 0.43439999
9.1380997 2.0499001 -1.0139
10.1194 2.717 -1.5545
9.6218004 2.6552 -0.27810001
10.3683 1.7932 -1.556
9.5984001 2.7397001 -0.51730001
9.7798004 2.1726999 -1.4834
9.7669001 2.2282 0.37459999
9.7191 1.7244 -1.3796
9.8582001 2.0583999 -1.455
9.9955997 2.3682001 -1.5398
9.5980997 2.7744999 -0.51310003
9.7756004 2.217 -1.4823
9.9764996 1.716 -0.92409998
9.1786003 2.0792999 -1.399
9.7101002 2.5184 -1.4831001
10.1313 2.6494 -1.5486
9.6415997 2.5641999 -0.41850001
10.119 2.6524 -1.5473
10.1778 2.6602001 -1.5556
10.115 2.6782 -1.5574
10.2394 2.7153001 -1.5669
10.2666 2.7269001 -1.5707999
9.8367996 1.808 0.21960001
9.7250004 2.1914999 -0.62629998
9.6322002 2.5639 -1.4743
10.1776 2.7195001 -1.5575
9.1617002 2.0552001 -1.012
10.1575 2.7186 -1.5546
10.1186 2.7588 -1.5573
10.384 1.796 -1.5567
10.2811 2.2165999 -1.5651
9.6646996 2.4554999 -0.51370001
9.8599997 1.8926001 -1.4944
9.1590004 2.0727 -1.3917
9.9665003 1.7802 -0.9307
9.1683998 2.1549001 -1.4
9.8304005 1.8363 0.2199
9.7206001 2.2086999 -0.63730001
9.6267004 2.5861001 -1.4724
10.1482 2.7218001 -1.5537
9.1375999 2.0680001 -1.011
10.119 2.7361 -1.5488
10.4036 1.7993 -1.5579
10.238 2.4747 -1.562
9.6054001 2.7128 -0.5079
9.7980003 2.1589 -1.485
9.1830997 2.0919001 -1.3916
9.8195 1.8383 0.2172
9.7198 2.2096 -0.6372
9.6094999 2.5983 -1.4692
10.0976 2.7635 -1.5515
10.1597 2.7588999 -1.4361
10.4301 1.8039 -1.5602
9.6885996 2.3561001 -0.51609999
9.8790998 1.7972 -1.4945
9.6828003 2.3793001 -0.51490003
9.8789997 1.8174 -1.4906
9.6138 2.6789 -0.41389999
10.0695 2.7571001 -1.5526
9.1813002 2.102 -1.3886
10.027 2.7623 -1.551
9.1591997 2.1377001 -1.3972
10.2164 2.8025 -1.5618
9.1798 2.0969 -1.3906
10.0481 2.7629001 -1.5464
9.9712 1.76 -0.93269998
9.1733999 2.1398001 -1.3915
9.7937002 2.2993 -1.4924999
9.7997999 2.3097999 -1.4986
10.2196 2.7158 -1.5654
9.7681999 2.3996999 -1.4855
10.2147 2.7467999 -1.5625
9.7634001 2.4217999 -1.4859
9.7510996 2.4784999 -1.4845999
9.5999002 2.7932 -0.48390001
10.0581 2.8793001 -1.6275001
9.7768002 2.2395999 -1.4752001
9.1596003 2.0957999 -1.3986
10.0369 2.7571001 -1.5416
9.1598997 2.1157 -1.3935
10.0479 2.7499001 -1.5589
9.1796999 2.1077001 -1.3871
9.7488003 2.4949999 -1.4845001
9.7442999 2.5158 -1.4834
9.7412004 2.5352001 -1.482
9.7370996 2.5585999 -1.4843
9.7335997 2.5731001 -1.4823999
9.7244997 2.6189001 -1.4815
9.7835999 2.4967999 -1.4491
9.9364996 2.816 -1.5273
9.717 2.6519001 -1.4814
9.5792999 2.7718 -0.38100001
9.7589998 2.2132001 -1.3615
10.0217 2.8401 -1.5319999
9.9834995 1.7398 -1.64
9.7110004 2.6738999 -1.4811
9.9933996 1.7415 -1.64
9.7082005 2.6975999 -1.4802999
10.0973 1.8562 -1.64
9.8143997 2.7801001 -1.4989001
9.9364996 1.7642 -1.4998
10.5171 1.819 -1.5646
9.7723999 2.2017 0.35910001
9.8402004 2.0229001 -1.472
10.093 1.8348 -1.6390001
9.8112001 2.7792001 -1.4967999
10.5313 1.8214 -1.5650001
10.0772 1.8283 -1.64
9.7519999 2.0750999 -0.57609999
9.7959003 2.7749 -1.4912
10.19 2.5453999 -1.5562
10.038 2.8787999 -1.6278
9.7581997 2.2392001 -1.4709001
9.5795002 2.8169 -0.49360001
10.0395 2.8972001 -1.6271
9.1952 2.5564001 -1.1602
9.7585001 2.2526 -1.4711
10.0578 1.8386 -1.6385
9.7754002 2.7691 -1.4832
9.7791996 2.5748 -1.6274
9.3450003 1.6174999 -1.3936
9.8202 2.1245 -1.4713
9.7202997 2.6406 -1.4665999
9.7656002 2.7663 -1.4785
9.6040001 2.7172999 -0.5
9.7993002 2.1454 -1.4786
9.6042995 2.7198 -0.4718
9.7987003 2.1589999 -1.4593
9.5993996 2.8162999 -0.49579999
10.0592 2.8848 -1.6279
9.7777004 2.2584 -1.475
9.5997 2.7367001 -0.47839999
9.7795 2.1767001 -1.4581
10.0721 2.9416001 -1.6272
9.7833996 2.3145001 -1.4789
9.7809 2.3246 -1.4799
9.6046 2.7212 -0.4702
9.7992001 2.1784 -1.459
9.2076998 2.5587001 -1.1404001
9.5988998 2.8175001 -0.47119999
9.7796001 2.2548001 -1.4586999
9.7676001 2.3968 -1.4795001
9.7622004 2.4228001 -1.4797
10.1884 2.7962 -1.5592999
9.7532997 2.4734001 -1.4799
9.7497997 2.4923 -1.4794
9.7475004 2.5127001 -1.4708
9.7403002 2.5350001 -1.4787
9.7354002 2.5594001 -1.4789
9.7325001 2.5754001 -1.4794
9.3190002 1.6533999 -1.3729
9.9345999 1.7625999 -1.4765
9.6646004 2.4626 -0.46700001
9.8598003 1.9179 -1.4567
9.7292995 2.5955999 -1.4736
9.7261 2.6154001 -1.4716001
9.7173996 2.6557 -1.4735
9.7089996 2.6977999 -1.4756
9.3589001 1.6199 -1.3759
10.3379 1.8767999 -1.5214
9.8368998 1.7871 -1.448
9.6885996 2.3548 -0.4788
9.8793001 1.796 -1.4543
9.9281998 1.7653 -1.4585
9.9189997 1.7624 -1.4591
9.8585997 1.7693 -1.4487
9.8211002 1.7674 -1.4436001
9.6028996 2.7388 -0.243
10.35 1.865 -1.5215
9.8188 1.7740999 -1.4438
9.6869001 2.3668001 -0.4603
9.8795996 1.8163 -1.4581
9.8278999 1.8092999 -1.446
9.8523998 1.8152 -1.4497
9.6615 2.4925001 -0.1902
10.5526 1.9571 -1.5527
9.9137001 1.8399 -1.4586999
9.9119997 1.8408999 -1.4585
9.9049997 1.8726 -1.4579999
9.8987999 1.8792 -1.4576
9.8975 1.8961999 -1.4576
9.7881002 2.1321001 0.37490001
9.8796997 1.9491 -1.4565001
9.7870998 2.1410999 0.36739999
9.8740997 1.9672 -1.4562
9.7593002 2.2395 -1.4566
9.7990999 2.2007 -1.2337
10.3459 1.9088 -1.5207
10.5579 1.9756 -1.5529
9.8966999 1.9104 -1.4575
9.8942003 1.9321001 -1.4575
9.8935003 1.9586 -1.4575
9.8886003 1.9632 -1.4572001
9.8832998 1.9963 -1.4568
9.7803001 2.1601 0.36039999
9.8781004 1.999 -1.4564
9.8737001 2.0167 -1.4563
9.8732004 2.0297 -1.456
9.8521004 2.0778 -1.4547
10.5622 2.0532 -1.5535001
10.5552 2.0910001 -1.5533
10.5539 2.1026001 -1.553
10.5343 2.1305001 -1.5513999
10.5184 2.1598001 -1.5504
9.8599005 2.0912001 -1.4553
9.8577995 2.1022999 -1.455
9.8542004 2.1210001 -1.4547
9.8393002 2.1373 -1.4536999
9.5942001 2.7599001 -0.4797
9.7777004 2.1919 -1.4497
9.5998001 2.7932 -0.4603
9.7798004 2.2363999 -1.4527
10.5483 2.1321001 -1.5524
10.1053 2.7799001 -1.3335
10.5398 2.1514001 -1.5517
10.1351 2.7842 -1.34
10.5413 2.1607001 -1.5519
10.1182 2.7823 -1.3392
10.5377 2.1798 -1.5516
10.5334 2.1963 -1.5515
10.5334 2.2024 -1.5517
10.5196 2.2156 -1.5508
10.5278 2.2230999 -1.5511
10.5181 2.2390001 -1.5502
10.5177 2.2442 -1.5503
9.7588997 1.5602 -0.2595
10.4988 2.2844999 -1.5489
9.8198996 2.2430999 -1.4521
9.7924995 1.5595 -0.25749999
10.5226 2.2609999 -1.5505
9.7754002 1.558 -0.2431
10.5187 2.2783 -1.5505
9.7770004 1.5631 -0.2491
9.2431002 2.5618999 -0.87440002
10.5144 2.2993 -1.5502
10.513 2.3032999 -1.5501
10.5025 2.323 -1.5489
10.4991 2.3297999 -1.549
9.8340998 2.2107999 -1.4521
9.8188 2.2074001 -1.4514
9.7552996 2.2149 -1.4463
9.8309002 2.237 -1.4525
9.8367996 2.247 -1.4529999
9.8198996 2.2628 -1.4521
9.8164997 2.2966001 -1.4517
9.7990999 2.3183 -1.4506
9.7976999 2.3262999 -1.4504
9.7952003 2.3434999 -1.4503
9.7554998 2.7634001 -1.4753
10.0188 1.7328 -1.4628
9.4219999 1.4837 -1.0202
10.2661 1.8227 -1.4997
9.5939999 2.7760999 -0.4786
9.7757998 2.2195001 -1.4428999
10.4891 2.4028001 -1.5481
10.4783 2.4115 -1.5473
9.8198996 2.3157001 -1.4519
9.8195 2.3290999 -1.4516
9.8130999 2.3478 -1.4513
9.7992001 2.3728001 -1.4502
9.7985001 2.381 -1.4504
9.7793999 2.3970001 -1.4489
9.7797003 2.4105 -1.4491
10.4067 1.7989 -0.90100002
9.7598 2.4682 -1.448
10.477 2.3566999 -1.5436
10.493 2.3994999 -1.5486
9.3781996 1.4722 -0.93580002
10.4811 2.4535 -1.5476
10.4552 2.5107999 -1.5452
10.4562 2.5218999 -1.5457
9.7982998 2.4137001 -1.4502
9.7777996 2.4316001 -1.4489
9.7786999 2.4498 -1.4487
9.7779999 2.4660001 -1.4489
9.8956003 2.8044 -1.5276
9.7579002 2.4986999 -1.4475
9.7592001 2.5006001 -1.4475
9.7582998 2.7642 -1.4579
9.7978001 1.8884 -0.35139999
10.2554 1.9648 -1.4986
9.7980003 2.4366 -1.4503
9.9139996 2.8096001 -1.5274
9.7791996 2.4885001 -1.4485
9.7777996 2.5023999 -1.4485
9.7587996 2.5386 -1.4471999
9.7391005 2.5757999 -1.4457999
9.5393 2.8090999 -0.2036
9.8041 1.8605 -0.34760001
10.2796 1.9461 -1.4998
9.7951002 1.9033 -0.34599999
10.3803 2.3018999 -1.5791
10.2586 1.9993 -1.499
10.4984 2.359 -1.5481
10.199 1.5968 -1.6441
9.5921001 2.7741001 -0.4562
9.7771997 2.2005999 -1.4389
9.8149996 2.2383001 -1.4519
9.7816 2.5409 -1.4488
9.7596998 2.5583 -1.447
9.7579002 2.5769 -1.4471
9.7133999 2.7032001 -1.4473
10.2798 1.9758 -1.4996001
9.7715998 2.0021999 -0.3572
10.2399 2.0952001 -1.497
9.7635002 2.0392001 -0.3572
10.2368 2.1085 -1.4966
10.2987 1.9270999 -1.4997
9.5585003 2.8134 -0.21969999
10.2989 1.9498 -1.4993
10.2955 1.9725 -1.4994
10.2793 1.9995 -1.4985
9.7812996 1.9636 -0.3416
10.2599 2.0576999 -1.4974
10.2583 2.0747001 -1.4973
10.36 2.4470999 -1.5796
9.7628002 2.0402999 -0.3556
10.2398 2.1322999 -1.4960999
10.3535 2.4837 -1.5793
9.7536001 2.0818 -0.34119999
10.2193 2.1714001 -1.495
9.7454004 2.1185999 -0.34810001
10.2195 2.1856999 -1.4951
10.3557 2.5325 -1.5799
9.7435999 2.1271999 -0.3493
10.217 2.2028 -1.495
10.1999 1.5738 -1.6443
9.5970001 2.7542 -0.4436
9.7706003 2.1991 -1.4348
9.7227001 2.2007 -0.59609997
9.6346998 2.5869 -1.4272
9.7391996 2.6176 -1.4444
9.7363997 2.7068 -1.4461
9.7744999 2.7688 -1.4538
9.3788004 1.6233 -1.3605
9.6133003 2.6956 -0.2229
10.3423 1.8363 -1.5008
10.5579 1.9933 -1.553
10.338 1.8355 -1.5017999
10.5596 2.0058 -1.5533
10.3289 1.8406 -1.501
10.556 2.0376999 -1.5529
9.5998001 2.7392001 -0.2392
10.3284 1.8789999 -1.5002
9.7133999 1.7185 -1.0989
10.5583 2.0576999 -1.5531
9.5978003 2.7584 -0.2387
9.7636003 2.1926999 -1.2180001
10.3252 1.8929 -1.5001
9.717 1.739 -1.0825
10.5585 2.0785999 -1.553
9.5956001 2.7711 -0.2202
9.7632999 2.2119 -1.2198
10.3348 1.9124 -1.5151
9.1798 2.5874 -0.8858
10.2997 1.9906 -1.4991
10.2799 2.0480001 -1.4976
10.258 2.0989001 -1.4963
10.2598 2.1092 -1.4962
10.2397 2.1552999 -1.4957
10.2396 2.1623001 -1.4953001
10.346 2.5445001 -1.5786
10.2183 2.2318001 -1.4947
10.3399 2.5969999 -1.5783
9.7306004 2.1819 -0.35870001
10.1989 2.277 -1.493
10.3397 2.6120999 -1.5784
9.7241001 2.2096 -0.35429999
10.1934 2.2851 -1.4929
10.4516 1.8025 -1.6447001
10.1615 2.7435 -1.5045
10.4998 1.8135 -1.6459
9.2250996 2.0878999 -0.97710001
10.2108 2.7595 -1.5122
9.6330996 2.6097 -1.4269
9.6736002 2.6269 -1.4331
10.1481 2.7607 -1.5026
10.208 2.7795999 -1.5118999
10.2189 2.7837999 -1.5136
9.7096004 2.2583001 -0.59960002
9.6190996 2.6252 -1.4249001
9.6761999 2.6445 -1.4335001
10.3768 1.9662 -0.88059998
9.7145004 2.6599 -1.4397
9.7552996 2.7119999 -1.4473
9.7599001 2.0395999 -0.53060001
9.7994003 2.7284999 -1.454
9.7550001 2.0604 -0.5381
9.7806997 2.7706001 -1.4531
9.9675999 1.7685 -1.4457
9.5795002 2.7693 -0.2026
9.7578001 2.2046001 -1.1998
10.3193 1.911 -1.4991
10.2998 2.0153 -1.4978
10.2785 2.0722001 -1.4971
10.2586 2.1263001 -1.4958
10.2394 2.1951001 -1.4949
10.2197 2.2474999 -1.494
10.1387 1.5727 -1.6439
9.8107996 1.8092 -0.59530002
9.7059002 2.1845 -1.4205
10.3186 2.6377001 -1.576
9.7175999 2.237 -0.35550001
10.1761 2.3181 -1.4905
9.7143002 2.2539999 -0.34459999
10.1745 2.3361001 -1.4905
10.3147 2.6700001 -1.5759
9.7114 2.2685001 -0.34490001
10.1777 2.358 -1.4913
10.3112 2.681 -1.5755
9.7068996 2.2834001 -0.35370001
10.1775 2.3608999 -1.4914
9.625 2.6396 -0.34169999
9.1152 2.0436001 -0.94129997
10.0984 2.7070999 -1.4941
9.9082003 2.7363 -1.4673001
10.2783 2.098 -1.4967999
9.2953997 1.4484 -0.95990002
10.2783 2.1170001 -1.4960001
10.2594 2.1580999 -1.4955
10.2577 2.1887 -1.4952
10.2398 2.2179 -1.4943
10.2396 2.2349 -1.4944
10.3448 2.6104 -1.5791
10.219 2.2973001 -1.4938
10.1999 2.3274 -1.4928
10.3362 2.6658001 -1.5789
10.1973 2.3583 -1.4924001
9.7018995 2.3053999 -0.35870001
10.1797 2.3940001 -1.4914
10.1789 2.4003999 -1.4915
9.6981001 2.3245001 -0.3531
10.1582 2.4043 -1.4888
9.6900997 2.3592999 -0.34299999
10.1589 2.4396999 -1.4897
9.7385998 2.2244 0.4826
9.6293001 2.6178 -0.35229999
10.0993 2.6956 -1.4945
9.6190996 2.6596 -0.35870001
10.0788 2.7356 -1.4904
9.8315001 1.7234 -0.5
10.0013 2.7593 -1.4802999
9.9286003 1.7615 -1.4368
10.3286 2.6817 -1.5777
10.1998 2.3776 -1.492
10.1996 2.3947001 -1.4922
10.1799 2.437 -1.4909
9.6879997 2.3657 -0.354
10.159 2.4542999 -1.4892
9.6817999 2.3972001 -0.3434
10.1597 2.4628999 -1.4895999
10.1517 2.494 -1.4885
9.1367998 2.0485001 -0.94090003
10.1195 2.7140999 -1.4956
9.6232004 2.6454 -0.35929999
9.1133003 2.0613999 -0.9418
10.0992 2.7398 -1.4921
10.0984 2.7472 -1.4919
9.8273001 1.7428 -0.4984
10.0138 2.7627001 -1.4802001
10.1784 2.4590001 -1.4904
10.1797 2.4749999 -1.4904
9.6615 2.4786999 -0.36000001
10.135 2.5574 -1.4867001
9.6601 2.4879 -0.34810001
10.1366 2.5608001 -1.4871
9.1211004 2.0632 -0.9411
10.1193 2.7388999 -1.4967999
9.7651997 2.0204999 -0.5212
9.8195 2.7242 -1.4497
10.1784 1.5962 -1.6438
9.7568998 2.214 -1.4346
10.1585 2.5527999 -1.4888
10.1597 2.5666001 -1.4888
9.7793999 2.1368999 0.4849
10.1395 2.5994 -1.4875
9.7784996 2.1489 0.4941
10.1377 2.6089001 -1.4876
9.7586002 2.1796999 0.49380001
9.6429996 2.559 -0.3545
10.1188 2.6271999 -1.4852999
10.1199 2.7454 -1.4918
10.0374 2.7678001 -1.4802999
10.1582 2.5309999 -1.489
9.8065996 1.8257999 -0.57920003
9.7173996 2.2049999 -1.4176
9.7750998 2.1645999 0.4991
10.1395 2.635 -1.4877
9.7670002 2.1956 0.49880001
10.1378 2.6422 -1.4871
9.7599001 2.1975999 0.4937
9.6408997 2.5697 -0.3466
10.1189 2.6564 -1.4854
9.7594004 2.2253001 0.48140001
10.119 2.6965001 -1.4969
10.4801 2.4252 -1.5473
9.3811998 1.6237 -1.3516999
9.2028999 2.5520999 -0.89910001
9.5999002 2.8166001 -0.21870001
10.32 1.9411 -1.4892
10.271 2.3103001 -1.4947
9.6983995 2.1828001 -1.4146
9.7646999 2.2118001 0.4928
10.1389 2.6668999 -1.4868
10.0993 2.7809 -1.4866
9.8559999 2.7258999 -1.4594001
9.6848001 2.1798 -1.4062001
9.6724005 2.1947999 -1.4047
10.1795 2.6110001 -1.488
10.1794 2.6364 -1.4872
10.1572 2.7170999 -1.4871
10.0978 2.779 -1.4903001
9.8388004 2.7395 -1.4450999
10.0589 1.7398 -1.4461
10.2802 2.1421001 -1.4895999
10.0404 1.7366 -1.4385
10.1594 2.7361 -1.4854
10.4755 2.4300001 -1.5470999
9.3797998 1.6235 -1.3592
10.3399 1.8372 -1.4974
10.3376 1.8526 -1.4928
10.3326 1.8733 -1.497
9.5979996 2.7598 -0.212
9.7648001 2.1930001 -1.1815
10.3293 1.8963 -1.4974
9.5951004 2.7723 -0.2186
10.3243 1.919 -1.4943
9.5887003 2.7832 -0.20630001
10.322 1.9345 -1.4907
9.5797997 2.7806001 -0.2077
10.3199 1.9398 -1.4905
9.5791998 2.8145001 -0.2198
9.1996002 2.5511999 -0.89719999
10.3192 1.9509 -1.4852999
9.1899996 2.5739 -0.89569998
10.317 1.9624 -1.4874001
9.1908998 2.5918 -0.89899999
10.311 1.9867001 -1.4888
10.3068 2.0127001 -1.4913
10.3055 2.0204999 -1.4859999
10.298 2.0545001 -1.4912
10.2963 2.0664001 -1.4923
10.2897 2.0978 -1.4913
10.2887 2.1015 -1.4906
10.2825 2.1296999 -1.4909
10.2798 2.1378 -1.4884
10.2789 2.1492 -1.4906
10.2765 2.1659 -1.4887
10.2686 2.2128999 -1.4826
10.2639 2.2283001 -1.4848
10.2594 2.2377999 -1.4922
10.2602 2.2493999 -1.4863
10.2595 2.2563 -1.4847
10.2413 2.3406 -1.4848
9.8429003 2.7407 -1.4408
9.6132002 2.6956 -0.2088
10.3523 1.8367 -1.4847
10.2389 2.3522999 -1.4848
10.2367 2.3717 -1.4848
10.2322 2.3938999 -1.4829
9.9588003 1.7644 -1.3343
10.227 2.4168999 -1.4812
10.2244 2.4349 -1.4852
10.222 2.4484 -1.4839
10.2195 2.4554 -1.4852
10.2181 2.4618001 -1.4822
10.2082 2.5174 -1.4809999
10.2056 2.5250001 -1.4859
10.2024 2.5486 -1.4809
10.199 2.559 -1.4828
10.1977 2.5692 -1.4816
10.1919 2.595 -1.4814
9.8290005 1.7418 -0.46419999
10.019 2.7641001 -1.4763
10.1595 2.5186999 -1.4891
9.8105001 1.8092 -0.57959998
9.7178001 2.1884999 -1.4018
10.1872 2.6173 -1.4849
10.1852 2.6379001 -1.483
10.1831 2.6452 -1.4813
10.1791 2.6580999 -1.4852
10.177 2.6796 -1.4809999
10.174 2.6923001 -1.4807
10.1685 2.7156999 -1.4828
10.1657 2.7349999 -1.4811
10.1614 2.7541001 -1.4816
10.159 2.7598 -1.4808
10.1591 2.7663 -1.4811
9.8435001 2.7407999 -1.4392999
10.0397 2.7685001 -1.4773
10.307 2.3197999 -1.4949
9.6799002 2.1787 -1.3916
10.1997 2.539 -1.4873
9.5761003 2.7709 -0.4341
9.7577 2.2045 -1.4056
9.6068001 2.7182 -0.33559999
10.0771 2.7802 -1.4664
10.2945 1.8371 -1.5867
9.8283997 1.7455 -0.45109999
10.0117 2.7649 -1.4577
10.3069 1.8393 -1.5852
10.0347 2.7711999 -1.4577
9.1982002 2.5380001 -0.86260003
10.3199 1.9384 -1.477
9.6831999 2.1794 -1.3904001
10.0997 2.7864001 -1.4664
9.2198 2.4651999 -0.86519998
10.3393 1.8796999 -1.4651
9.5797005 2.8157001 -0.1934
9.1996002 2.5511999 -0.87300003
10.3186 1.9495 -1.4795001
9.2101002 2.5374999 -0.8646
9.5998001 2.7878001 -0.1908
10.3341 1.9352 -1.4634
9.2109003 2.5452001 -0.86479998
9.5998001 2.8166001 -0.19509999
10.3344 1.9412 -1.464
10.3236 1.961 -1.4630001
9.1906004 2.5739999 -0.87949997
10.3197 1.9771 -1.4629
10.2993 2.0446999 -1.479
10.2795 2.1391001 -1.4793
10.2391 2.2546999 -1.4936
9.3549995 1.618 -1.3250999
9.2189999 2.4373 -0.86449999
10.339 1.8398 -1.4779
9.2196999 2.4531 -0.86519998
10.3389 1.8566 -1.4651
9.1983004 2.5939 -0.87699997
10.3193 1.992 -1.4625
9.2189999 2.5998001 -0.87589997
10.3265 1.9883 -1.4631
10.3221 2.0091 -1.4627
10.3187 2.0109999 -1.4622999
10.3094 2.0539 -1.4615
10.2974 2.0747001 -1.4615
10.2992 2.0804 -1.4608001
10.2784 2.1491001 -1.4788001
10.2755 2.1671 -1.4785
10.2664 2.2135 -1.4787
10.2626 2.2344999 -1.4798
10.2595 2.2392001 -1.4788001
9.2945004 1.5996 -0.9267
10.2604 2.2423999 -1.4773
9.6977997 2.1826999 -1.383
10.2417 2.3406999 -1.4798
10.2376 2.359 -1.4768
10.2352 2.3728001 -1.4796
9.2357998 2.4284 -0.86699998
9.6160002 2.6867001 -0.19220001
10.3521 1.8367 -1.4762
10.3116 2.0748 -1.4617
10.3061 2.0934 -1.4611
10.3011 2.1077001 -1.4608001
10.2992 2.1097 -1.4606
10.2931 2.1278999 -1.46
10.2959 2.1398001 -1.4604
10.2947 2.1408999 -1.4602
10.2884 2.1512001 -1.46
10.279 2.1745999 -1.4594001
10.232 2.3952 -1.4789
10.2271 2.4158001 -1.4789
10.2233 2.4386001 -1.4771
10.2213 2.4493001 -1.4792
10.219 2.4593 -1.4721
10.2159 2.4795001 -1.4771
10.2068 2.5197999 -1.4788001
10.2041 2.5387001 -1.4780999
10.2022 2.5497 -1.4796
10.1973 2.5690999 -1.4799
9.4959002 2.5664999 -1.0805
10.1915 2.5992999 -1.4785
10.1915 2.6097 -1.4748
10.1862 2.6340001 -1.4759001
10.1795 2.6596 -1.4749
9.8381004 2.7855 -1.4270999
10.2556 2.2743001 -1.4881001
9.3720999 1.6222 -1.3382
10.2927 2.1677999 -1.4601001
10.2787 2.2188001 -1.459
10.2596 2.2579 -1.4582
9.8126001 1.8056999 -0.55449998
9.7153997 2.1867001 -1.3823
9.8079996 1.8235 -0.55599999
9.7184 2.204 -1.3925
10.1801 2.6584001 -1.4753
10.1768 2.6782999 -1.4799
10.1744 2.6924 -1.4791
10.1687 2.7186999 -1.4756
10.1664 2.7351999 -1.4796
10.1561 2.7846999 -1.4749
10.2794 2.2395 -1.4586
10.2735 2.2739 -1.4582
10.2399 2.3525 -1.4564
10.2399 2.3622999 -1.4563
10.2536 2.3543 -1.4566
10.2456 2.3943 -1.4561
10.2384 2.3996999 -1.4556
10.237 2.4049001 -1.4556
10.2196 2.4595001 -1.4554
9.7386999 2.2916 -1.6303999
9.1798 2.5955999 -1.3329999
10.2437 2.4170001 -1.4559
10.2395 2.4512999 -1.4558001
10.2317 2.4733 -1.4551001
10.2189 2.4758999 -1.4541
10.2186 2.5281999 -1.4541
10.1992 2.5794001 -1.4529001
10.1796 2.6596 -1.4598
9.5798998 2.7720001 -0.40920001
9.7580996 2.2046001 -1.3816
9.5138998 2.5713999 -1.0779001
10.216 2.5822001 -1.4536
10.1986 2.5982001 -1.4524
10.1968 2.6155 -1.4521
9.4989004 2.6108 -1.0727
10.1991 2.6359999 -1.4518
10.1987 2.6517999 -1.4519
10.1787 2.6774001 -1.4507999
9.7545004 1.727 -1.2061
10.1798 2.6924 -1.4507999
10.3751 2.3543 -1.4645
10.196 2.6767001 -1.4514
10.1791 2.7184999 -1.4507
10.1778 2.7397001 -1.4509
9.9236002 1.7594 -1.3877
9.9195004 2.8913 -1.6262
9.3592997 1.6188 -1.3044
9.7579002 2.7156 -1.391
9.7336998 2.756 -1.3893
8.9986 2.4912 -1.6174999
9.2201004 2.4217999 -0.84969997
9.6138 2.6984 -0.1605
10.349 1.8361 -1.4556
8.9791002 2.4897001 -1.6174999
9.2188997 2.4361 -0.85089999
10.3395 1.8358001 -1.46
8.9779997 2.5167 -1.6167001
9.2142 2.4463999 -0.86000001
10.3387 1.8437001 -1.4591
9.7873001 1.9423 -0.2588
10.3981 2.3594999 -1.4626
9.7725 2.7197001 -1.3915
9.2735004 1.5815001 -0.9271
10.2579 2.2574999 -1.4798
9.9399004 2.8931 -1.626
10.1766 2.8383999 -0.87989998
9.3655996 1.6199 -1.3023
9.1555004 2.5912001 -1.3037
10.1571 2.7811999 -1.4584
9.7792997 2.7216001 -1.3892
10.4167 2.3636999 -1.4601001
10.4337 2.3676 -1.4591
9.6799002 2.437 0.2164
9.5789003 2.8192 -0.6207
9.1885004 2.5599 -1.3087
9.1798 2.5955999 -1.3178
9.7770004 2.7672 -1.3841
10.4532 2.372 -1.4584
10.2172 2.5156 -1.4542
9.5965004 2.7565999 -0.39210001
9.7699003 2.1977 -1.3660001
10.4786 2.3778 -1.4585
9.7595997 2.0395999 -0.4772
9.7966995 2.7263999 -1.3803
9.7552004 2.0669 -0.46340001
9.7839003 2.7691 -1.3802
9.2167997 2.4393001 -0.82539999
10.3396 1.8399 -1.4392999
9.2206001 2.4244001 -0.83230001
9.6148996 2.6932001 -0.153
10.3595 1.8367 -1.4234
9.5935001 2.7718 -0.3655
9.7628002 2.2140999 -1.3523999
10.4582 1.8088 -1.5627
10.1761 2.7567999 -1.428
10.1586 2.7776999 -1.4396
10.1583 2.7802 -1.4397
10.2586 2.2691 -1.4577
9.3794003 1.6223 -1.2875
10.4635 2.3524001 -1.4423
9.8332005 2.7830999 -1.3692
9.1395998 2.1622 -1.4858
9.4814997 1.4823999 -0.95670003
10.3399 1.8385 -1.4184
10.3396 1.8412 -1.4155
9.1595001 2.1689 -1.4982001
9.6187 2.6803999 -0.1373
10.3557 1.8361 -1.4144
8.9597998 2.1515 -1.6204
10.1613 2.7579999 -1.4170001
9.5958004 2.7616999 -0.3529
9.7600002 2.2026999 -1.329
9.1191998 1.7391 -1.6267999
9.3598003 1.6788 -0.86180001
10.3387 2.3243001 -1.4048001
9.5697002 2.7691 -0.35710001
9.7588997 2.2047999 -1.3289
9.7371998 2.1987 -1.4791
10.2552 2.7786 -0.86839998
10.0191 2.8329 -1.6233
10.3395 1.853 -1.3926001
9.3650999 1.6198 -1.2536
9.7441998 2.1805999 -1.4795001
10.0363 2.8390999 -1.6278
9.1590004 2.1810999 -1.471
9.6093998 2.7167001 -0.1169
9.5095997 1.5188 -0.92250001
10.3492 1.8547 -1.3838
10.1597 2.7576001 -1.4
9.5959997 2.7630999 -0.33090001
9.7603998 2.204 -1.3134
8.9568996 2.1519001 -1.6199
10.1687 2.7535999 -1.3805
10.1588 2.7778001 -1.3992
10.1578 2.7866001 -1.3997999
10.3783 2.3536999 -1.3921
9.3596001 1.6176 -1.2407
9.3723001 1.6259 -1.2595
9.7855997 1.9543 -0.1726
10.393 2.3571 -1.3890001
9.5178003 1.6136 -1.6371
9.2392998 2.5465 -1.4955
9.7691002 1.7308 -1.2918
9.7680998 2.7632999 -1.3228
9.5397997 1.6136 -1.6357
9.2512999 2.5597999 -1.4978
9.7925997 1.7349 -1.2933
10.4127 2.3397999 -1.3875999
