# .PCD v0.7 - Point Cloud Data file format
VERSION 0.7
FIELDS x y z
SIZE 4 4 4
TYPE F F F
COUNT 1 1 1
WIDTH 1720
HEIGHT 1
VIEWPOINT 0 0 0 1 0 0 0
POINTS 1720
DATA ascii
9.1231003 2.1356001 -1.4416
9.1190004 2.1243999 -1.4646
9.1422005 2.1463001 -1.5046
9.1423998 2.1364 -1.4092
9.1536999 2.0874 -1.4053
9.1402998 2.1689 -1.4658
9.1506996 2.1556001 -1.4129
9.1452999 2.0639 -1.443
9.1455002 2.1714001 -1.4428999
9.1313 2.0766001 -1.457
9.1260996 2.1066 -1.4898
9.1793003 2.0467999 -1.4681
9.1400003 2.1554 -1.4943
9.1683998 2.171 -1.4163001
9.1365004 2.0929 -1.5003
9.1479998 2.0896001 -1.4084001
9.1244001 2.1126001 -1.4313
9.1294003 2.1506 -1.4786
9.1431999 2.0792999 -1.4981
9.1337004 2.0947001 -1.4215
9.1365995 2.1635001 -1.4461
9.1267996 2.1364 -1.4316
9.1434002 2.1157999 -1.5140001
9.1541996 2.0557001 -1.4522001
9.1724997 2.0478001 -1.4632
9.1778002 2.0757999 -1.402
9.1413002 2.0651 -1.4639
9.1687002 2.0839 -1.3995
9.1309004 2.1233001 -1.4194
9.1392002 2.0829 -1.4226
9.1202002 2.1231999 -1.4449
9.1201 2.1259 -1.4468
9.1363001 2.0929 -1.4189
9.1382999 2.1661999 -1.4697
9.1307001 2.0776 -1.4555
9.1742001 2.059 -1.4206001
9.1761999 2.0534999 -1.4295
9.1475 2.0620999 -1.4759001
9.1472998 2.0655 -1.4346
9.1331997 2.1442001 -1.4941
9.1260004 2.1234 -1.4910001
9.1724997 2.0790999 -1.5178
9.1265001 2.1499 -1.4664
9.1491003 2.1700001 -1.4866
9.1831999 2.0502 -1.4346
9.1330004 2.1582999 -1.4444
9.1506004 2.0718 -1.4206001
9.1330004 2.1031001 -1.5003999
9.1573 2.0564001 -1.4406
9.1295996 2.1347001 -1.425
9.1387997 2.0806999 -1.4254
9.1299 2.1087 -1.4974
9.1358004 2.0708001 -1.456
9.1316004 2.0917001 -1.4919
9.1379995 2.0723 -1.4398
9.1584997 2.0839 -1.4043
9.1457005 2.0785999 -1.4186
9.1322002 2.0768001 -1.4481
9.1559 2.1329999 -1.3981
9.1731005 2.0713 -1.4069
9.1402998 2.0843999 -1.4198
9.1393995 2.1640999 -1.439
9.1599998 2.0797 -1.4062001
9.1297998 2.0864999 -1.4827
9.1515999 2.1782 -1.4561
9.1528997 2.0861001 -1.4066
9.1506996 2.0708001 -1.4217
9.1261997 2.1414001 -1.4374
9.1623001 2.0940001 -1.3974
9.1281996 2.0827999 -1.4694
9.1405001 2.0810001 -1.4963
9.1187 2.1138999 -1.4636
9.1518002 2.0976 -1.402
9.1412001 2.1592 -1.4916
9.1654997 2.1092999 -1.3923
9.1709003 2.0546 -1.4302
9.1427002 2.0734 -1.4285001
9.1527996 2.0955 -1.4021
9.1503 2.0606 -1.4778
9.1660995 2.1057999 -1.3926001
9.1669998 2.1719 -1.4182
9.1581001 2.0565 -1.48
9.1440001 2.1698 -1.477
9.1309004 2.1544001 -1.4763
9.1477003 2.0676999 -1.4891
9.1206999 2.1222 -1.4766001
9.1188002 2.1138999 -1.4651
9.1227999 2.1417999 -1.4637001
9.1743002 2.0669999 -1.4105999
9.1324997 2.0768001 -1.4723001
9.1434002 2.1526999 -1.4177001
9.1231003 2.0922 -1.4605
9.1246004 2.1025 -1.4346
9.1417999 2.1166 -1.5125999
9.1545 2.0616 -1.4317
9.1462002 2.1036 -1.5146
9.1451998 2.0671999 -1.4841
9.1807003 2.0785999 -1.3995
9.1324997 2.1536 -1.4825
9.1351995 2.1282001 -1.4145
9.1681995 2.0599999 -1.4967999
9.1254997 2.1245 -1.4292001
9.1479998 2.0655999 -1.4332
9.1437998 2.1442001 -1.5075001
9.1315002 2.0857999 -1.433
9.1613998 2.0998001 -1.3959
9.1478004 2.0815001 -1.505
9.1743002 2.0481999 -1.471
9.1244001 2.1269 -1.4324
9.1304998 2.1336 -1.4960001
9.1220999 2.1392 -1.4529999
9.1341 2.1394999 -1.4986
9.1219997 2.1303 -1.4412
9.1337004 2.1185999 -1.5038
9.1550999 2.0717001 -1.5024
9.1591997 2.1768 -1.4327
9.1499996 2.1083 -1.5184
9.1330004 2.1392 -1.4218
9.1211996 2.1314001 -1.4734
9.1370001 2.0732 -1.4785
9.1257 2.0964999 -1.4361
9.1583004 2.0792999 -1.4075
9.1408005 2.1521001 -1.4203
9.1316004 2.1545 -1.4405
9.1485004 2.0602 -1.4714
9.1455002 2.0985999 -1.5125
9.1185999 2.1217 -1.4597
9.1185999 2.1138999 -1.4576
9.1728001 2.0620999 -1.5021
9.1310997 2.0789001 -1.4724
9.1683998 2.0736001 -1.4067
9.1601 2.0522001 -1.4617
9.1398001 2.1688001 -1.4582
9.1419001 2.1693001 -1.4721
9.1667004 2.0653 -1.4158
9.1490002 2.1210001 -1.4006
9.1241999 2.1152 -1.4313999
9.1472998 2.1349001 -1.4044
9.1735001 2.0493 -1.4434
9.1703997 2.0615001 -1.5002
9.1373997 2.1659999 -1.465
9.1721001 2.0720999 -1.5124
9.1660995 2.0572 -1.4284
9.1752005 2.0718 -1.4058
9.1633997 2.0553 -1.4838001
9.1431999 2.1696 -1.4754
9.1478996 2.1640999 -1.4944
9.1571999 2.1630001 -1.4144
9.1296997 2.0854001 -1.4809
9.1336002 2.1608 -1.4500999
9.1257 2.0880001 -1.4487
9.1283998 2.0816 -1.4658
9.1497002 2.1238 -1.5186
9.1444998 2.0738001 -1.4936
9.1248999 2.1141 -1.4299001
9.1556997 2.0548 -1.4524
9.1210003 2.1364 -1.4575
9.1581001 2.0623 -1.4926
9.1266003 2.1475 -1.4449
9.1365995 2.0802 -1.4296
9.1281996 2.1368001 -1.4288
9.1259003 2.0881 -1.4473
9.1215 2.1197 -1.4389
9.1667995 2.0548999 -1.4327
9.1485004 2.1585 -1.4175
9.1419001 2.1089001 -1.512
9.1462002 2.1293001 -1.4038
9.1359997 2.0868001 -1.4952
9.1471004 2.1751001 -1.4568
9.1278 2.1524999 -1.4531
9.1303997 2.1422999 -1.4906
9.1449003 2.1724 -1.4488
9.1292 2.1517 -1.4759001
9.1616001 2.0573001 -1.4866
9.1330996 2.0873001 -1.4908
9.1449003 2.0831001 -1.5034
9.1464005 2.1716001 -1.4778
9.1518002 2.1024001 -1.5184
9.1353998 2.0901999 -1.497
9.1702995 2.0497999 -1.4450999
9.1188002 2.1204 -1.4657
9.1253004 2.1336999 -1.4334
9.1421003 2.1064999 -1.4072
9.1366997 2.1375 -1.5031
9.1226997 2.1071 -1.4375
9.1294003 2.0948999 -1.4902
9.1696997 2.0497 -1.4464999
9.1673002 2.0574 -1.4270999
9.1531 2.1465001 -1.405
9.1368999 2.1615 -1.4793
9.1648998 2.0899999 -1.3979
9.1315002 2.0881 -1.4885
9.1520996 2.1773 -1.4468
9.1342001 2.1331 -1.5017
9.1327 2.0747001 -1.4632
9.1555996 2.0660999 -1.4960001
9.1365004 2.1166999 -1.5072
9.1759005 2.0581999 -1.4211
9.1745005 2.1040001 -1.3904001
9.1248999 2.0878 -1.4591
9.1484003 2.0874 -1.4093
9.1330996 2.1045001 -1.4179
9.1328001 2.1572001 -1.4423
9.1573 2.0564001 -1.4784
9.1280003 2.1083 -1.4941
9.1520004 2.0745001 -1.4163001
9.1276999 2.1429 -1.4841
9.1450005 2.0762 -1.4971
9.1560001 2.0868001 -1.4040999
9.1657 2.0785999 -1.5149
9.1515999 2.1605 -1.4165
9.1487999 2.0658 -1.4874001
9.1563997 2.0574 -1.439
9.1534004 2.1573999 -1.5068001
9.1286001 2.1419001 -1.4872
9.1372004 2.1603999 -1.4823
9.1568003 2.0562 -1.4768
9.1233997 2.1136999 -1.4854
9.1294003 2.1470001 -1.4351
9.1392002 2.0771 -1.4899
9.1374998 2.1015 -1.5056
9.1199999 2.1180999 -1.4447
9.1300001 2.1164999 -1.4986
9.1464996 2.151 -1.5058
9.1691999 2.0495999 -1.4479001
9.1766005 2.0915 -1.3936
9.1225004 2.1405001 -1.4531
9.1217003 2.1352 -1.4474
9.1211004 2.108 -1.4427
9.1674995 2.0492001 -1.4613
9.1237001 2.1333001 -1.4814
9.1316004 2.1363001 -1.4224
9.1520996 2.1334 -1.4005001
9.1457005 2.1447001 -1.4099
9.132 2.0755 -1.4586
9.1393995 2.1303 -1.5087
9.1289997 2.1163001 -1.497
9.1512003 2.1616001 -1.418
9.1618004 2.0538001 -1.4772
9.1664 2.0618 -1.4984
9.1334 2.1108999 -1.416
9.1218996 2.1043 -1.477
9.1412001 2.1322 -1.51
9.1310997 2.0822001 -1.4798
9.1634998 2.0885 -1.3992
9.1278 2.0957 -1.4315
9.1455002 2.1482999 -1.5067
9.1435003 2.0992999 -1.511
9.1459999 2.1657 -1.4294
9.1395998 2.1317999 -1.5085
9.1472998 2.1257 -1.4023
9.1336002 2.1108999 -1.5032001
9.1471996 2.1336999 -1.4040999
9.1350002 2.0716 -1.4604
9.1232004 2.1431 -1.4563
9.1274004 2.1289999 -1.4266
9.1313 2.079 -1.4453
9.1388998 2.0875001 -1.4191
9.1463003 2.1703999 -1.4381
9.1513004 2.0572 -1.4639
9.1236 2.1431999 -1.4518
9.1506004 2.0936999 -1.5146
9.1289997 2.1551001 -1.4612
9.1355 2.0903001 -1.4217
9.1636 2.1745 -1.4242001
9.1508999 2.1163001 -1.3992
9.1455002 2.1612 -1.4238
9.1323004 2.1593001 -1.4513
9.1343002 2.1552 -1.4844
9.1241999 2.1087 -1.4327
9.1535997 2.1775999 -1.444
9.1431999 2.1452999 -1.5063
9.1616001 2.0548999 -1.4805
9.1697998 2.0485001 -1.4625
9.1279001 2.1479001 -1.4783
9.1505003 2.1317 -1.5178
9.1251001 2.1026001 -1.4332
9.1500998 2.0606 -1.4414999
9.1800003 2.0532 -1.4285001
9.1367998 2.086 -1.4232
9.2248001 2.0545001 -1.4507
9.1436996 2.0680001 -1.436
9.1399002 2.082 -1.4965
9.1450996 2.0843 -1.4144
9.1429005 2.1538 -1.4191999
9.1438999 2.0669 -1.4809
9.1231003 2.0934 -1.4515001
9.1372995 2.1626 -1.4779
9.1490002 2.1733999 -1.4404
9.1472998 2.1451001 -1.4087
9.1624002 2.0515001 -1.4665999
9.1632996 2.0736001 -1.5098
9.1472998 2.1206 -1.4018
9.1275997 2.1524999 -1.4636
9.1576004 2.0643001 -1.4953001
9.1739998 2.0565 -1.4247
9.1681995 2.0564001 -1.4906
9.1436005 2.1391001 -1.4091001
9.1601 2.0534 -1.4467
9.1417999 2.1626999 -1.4876
9.1660004 2.0571001 -1.4903001
9.1246004 2.0925 -1.4743
9.1422997 2.0755999 -1.4261
9.1365004 2.1461999 -1.4977
9.1506004 2.0606999 -1.4401
9.1388998 2.154 -1.4247
9.1484003 2.0645001 -1.4842
9.1400995 2.1084001 -1.5102
9.1290998 2.0936 -1.4886
9.1253996 2.1472001 -1.4507
9.1309004 2.1521001 -1.4807
9.1422005 2.1647999 -1.4847
9.1497002 2.1006999 -1.5165
9.1212997 2.1184001 -1.4795001
9.1672001 2.0513999 -1.4764
9.1190996 2.1271 -1.4584
9.1773996 2.0476 -1.4715
9.1646996 2.0694001 -1.5066
9.1680002 2.0493 -1.4658999
9.1590996 2.0727 -1.4125
9.1344004 2.0973001 -1.419
9.1190996 2.1243999 -1.4662
9.1393003 2.1071 -1.4098001
9.1648998 2.0603001 -1.4238
9.1422997 2.1705999 -1.4514
9.1362 2.1154001 -1.4121
9.1575003 2.0732999 -1.5059
9.1409998 2.0833001 -1.4198
9.1489 2.1765001 -1.4599
9.1257 2.109 -1.4898
9.1738005 2.0601001 -1.4191
9.1796999 2.0613999 -1.4154
9.1426001 2.0678 -1.4388
9.1798 2.0469 -1.4697
9.1420002 2.0722001 -1.4313999
9.1666002 2.0664001 -1.5044
9.1356001 2.1348 -1.5029
9.1244001 2.1372001 -1.4804
9.1415005 2.1691999 -1.4479001
9.1409998 2.0662 -1.4699
9.1829996 2.0515001 -1.4313
9.1407003 2.1689999 -1.4507999
9.1359997 2.1623001 -1.4444
9.1754999 2.0544 -1.4279
9.1261997 2.0966001 -1.4346
9.1230001 2.0934 -1.4665999
9.1513004 2.1761 -1.4439
9.1475 2.1257 -1.5168
9.1601 2.0604 -1.4913
9.1194 2.1271999 -1.466
9.1385002 2.1675 -1.461
9.1237001 2.1010001 -1.4808
9.1395998 2.1175001 -1.4084001
9.1588001 2.0531001 -1.4661
9.1342001 2.154 -1.433
9.1210003 2.1249001 -1.477
9.1490002 2.1700001 -1.4324
9.1484003 2.1442001 -1.4073
9.1201 2.122 -1.4448
9.1499004 2.0912001 -1.406
9.1517 2.1782 -1.4546
9.1274004 2.1477001 -1.442
9.1780005 2.0465 -1.4619
9.1458998 2.0617001 -1.45
9.1714001 2.0776999 -1.4024
9.1416998 2.0710001 -1.434
9.1421003 2.0697999 -1.4355
9.1330996 2.1605999 -1.4665999
9.1350002 2.1610999 -1.4744
9.1440001 2.0818 -1.5014
9.1592999 2.0659001 -1.499
9.1675997 2.0525999 -1.4809999
9.1424999 2.0836 -1.5012
9.1448002 2.1122 -1.515
9.1497002 2.1133001 -1.5188
9.1388998 2.1664 -1.4471
9.1553001 2.0571001 -1.4419
9.1384001 2.1080999 -1.5084
9.1189003 2.1113 -1.4545
9.1519003 2.0720999 -1.4189
9.1604996 2.0559001 -1.4819
9.1316004 2.1522999 -1.4823
9.1620998 2.0676 -1.5031
9.1520004 2.0732999 -1.4175
9.1225996 2.1417 -1.4592
9.1877003 2.0511999 -1.4311
9.1337996 2.1057999 -1.5024
9.1718998 2.0609 -1.4188
9.1335001 2.0827999 -1.4323
9.1357002 2.1601 -1.4398
9.1674004 2.0609 -1.4212
9.1716995 2.0536001 -1.4318
9.1313 2.151 -1.4355
9.1596003 2.0738001 -1.5078
9.1487999 2.1644001 -1.4238
9.1640997 2.0681 -1.5049
9.1575003 2.1475 -1.4026999
9.1246004 2.0962 -1.4793
9.1246996 2.1398001 -1.4787
9.1564999 2.1521001 -1.406
9.1559 2.0708001 -1.4168
9.1483002 2.1709001 -1.4354
9.1521997 2.0953 -1.5164
9.1657 2.089 -1.398
9.1318998 2.1558001 -1.4421
9.1442003 2.1722 -1.4681
9.1280003 2.085 -1.4444
9.1328001 2.1341 -1.4994
9.1300001 2.0999 -1.4245
9.1476002 2.086 -1.5081
9.1197996 2.122 -1.4463
9.1227999 2.0934 -1.4545
9.1450005 2.096 -1.5111001
9.1492996 2.1222 -1.5185
9.1188002 2.1217 -1.4536999
9.1344995 2.1098001 -1.5042
9.1311998 2.0766001 -1.46
9.1240997 2.1421001 -1.473
9.1758003 2.0594001 -1.4193
9.1709003 2.0522001 -1.483
9.1674004 2.0492001 -1.4582
9.1365995 2.1426001 -1.5003
9.1456003 2.1163001 -1.5159
9.1323004 2.0755999 -1.4526
9.1309004 2.0880001 -1.4872
9.1592999 2.059 -1.4878
9.1639996 2.0518 -1.4729
9.1239996 2.1178 -1.4317
9.1314001 2.1579001 -1.4683
9.1700001 2.066 -1.4133
9.1443005 2.0625999 -1.4528
9.1315002 2.1510999 -1.4838001
9.1723003 2.0699999 -1.4083
9.1519003 2.0653 -1.4908
9.1658001 2.0629001 -1.4996001
9.1281996 2.1305001 -1.4256001
9.1405001 2.1668 -1.4428
9.1225996 2.1252999 -1.4366
9.1675997 2.0492001 -1.4628
9.1603003 2.0683999 -1.5028
9.1470003 2.0883 -1.5089999
9.1202002 2.1052001 -1.4693
9.1708002 2.0868001 -1.3972
9.1569004 2.1255 -1.3961
9.1267996 2.1415 -1.4357001
9.1527996 2.1231 -1.3982
9.1350002 2.0866001 -1.4935
9.1556997 2.1407001 -1.5183001
9.1313 2.0978 -1.4234
9.1423998 2.1694 -1.4737
9.1303997 2.1531 -1.4414999
9.1517 2.1321001 -1.4004
9.1553001 2.102 -1.5204999
9.1288004 2.1407001 -1.4887
9.1410999 2.0915999 -1.4138
9.1515999 2.0846 -1.5105
9.1666002 2.0583999 -1.4931999
9.1539001 2.0908999 -1.4033
9.1464996 2.0606999 -1.4651
9.1389999 2.1108999 -1.5095
9.1346998 2.1630001 -1.4548
9.1584997 2.0668001 -1.4194
9.1195002 2.1296999 -1.4574
9.1321001 2.0824001 -1.4829
9.1569004 2.1571 -1.4093
9.1667995 2.1135001 -1.3914
9.1215 2.1289001 -1.4769
9.1487999 2.1196001 -1.5183001
9.1645002 2.1206999 -1.3922
9.1309996 2.1129 -1.4999
9.1564999 2.0583999 -1.4829
9.1288996 2.0862999 -1.4389
9.1536999 2.0555999 -1.4627
9.1539001 2.0725 -1.5023
9.1615 2.062 -1.4237
9.1637001 2.0804999 -1.5153
9.1192999 2.1101999 -1.4512
9.151 2.1459999 -1.4062001
9.1355 2.1622 -1.473
9.1360998 2.1633 -1.4717
9.1506996 2.0845001 -1.4092
9.1576004 2.0655999 -1.4972
9.1239996 2.0899999 -1.4561
9.1445999 2.0899 -1.4112
9.1456003 2.1735001 -1.4517
9.1257 2.1424999 -1.4401
9.1617002 2.1266 -1.3939
9.1597004 2.0532999 -1.4708
9.1684999 2.0690999 -1.4107
9.1394997 2.0704 -1.4788001
9.1719999 2.0811999 -1.3999
9.1356001 2.0878 -1.4955
9.1279001 2.1122 -1.4948
9.1379995 2.0826001 -1.4944
9.1410999 2.1508999 -1.5001
9.1386003 2.155 -1.4262
9.1617002 2.1111 -1.3936
9.1303997 2.1322 -1.4965
9.1275997 2.1513 -1.4696
9.1281004 2.1526 -1.4682
9.1314001 2.1375 -1.4233
9.1225004 2.0969 -1.4714
9.125 2.0878 -1.4637001
9.1457996 2.1047001 -1.5146
9.1651001 2.0545001 -1.4837
9.1223001 2.0945001 -1.4563
9.1709003 2.0487001 -1.4687001
9.1463003 2.1280999 -1.5154999
9.1674995 2.0492001 -1.4567
9.1765003 2.0534999 -1.4897
9.1541996 2.1454999 -1.4037
9.1444998 2.0637 -1.4459
9.1420002 2.1524 -1.419
9.1698999 2.0854001 -1.3982
9.1645002 2.0945001 -1.3961999
9.1413002 2.0675001 -1.476
9.1478004 2.1752999 -1.4524
9.1427002 2.1364 -1.5101
9.1471004 2.0905001 -1.4086
9.1746998 2.0531001 -1.4879
9.1441002 2.1575 -1.4213001
9.1524 2.1001 -1.5182
9.1202002 2.1247001 -1.4453
9.1219997 2.0955999 -1.4638
9.1211996 2.0978 -1.4592
9.1507998 2.0901999 -1.4058
9.1327 2.1524999 -1.4342
9.1280003 2.085 -1.4746
9.1468 2.0825 -1.5049
9.1188002 2.1243999 -1.4571
9.1702003 2.0592 -1.4967999
9.1487999 2.1236 -1.4009
9.1478996 2.0655999 -1.4857
9.1743002 2.0553999 -1.4265
9.1777 2.0871999 -1.3952
9.1377001 2.1364999 -1.5048
9.1294003 2.1048 -1.4234
9.1533003 2.1363001 -1.5184
9.1269999 2.0836999 -1.4635
9.1325998 2.1605 -1.4574
9.1598997 2.0717001 -1.4129
9.1461 2.0901999 -1.5093
9.1287003 2.1382 -1.4286
9.1539001 2.0715001 -1.4177001
9.1608 2.0523 -1.4513
9.1638002 2.1621001 -1.4093
9.1185999 2.119 -1.4641
9.1210003 2.1261001 -1.4424
9.1191998 2.1256001 -1.4662
9.1197004 2.1168001 -1.4729
9.1749001 2.0603001 -1.5006
9.1451998 2.066 -1.4373
9.1521997 2.0813 -1.5087
9.1244001 2.1229999 -1.4877
9.1386003 2.0748 -1.4855
9.1619997 2.0585999 -1.4898
9.1557999 2.056 -1.4449
9.1303997 2.1089001 -1.4206001
9.1314001 2.1522999 -1.4371001
9.1697998 2.0818999 -1.4002
9.1445999 2.1289999 -1.405
9.1213999 2.1249001 -1.4786
9.1427002 2.1571 -1.4963
9.1248999 2.1205001 -1.4892
9.1296997 2.0925 -1.489
9.1613998 2.1238 -1.3937
9.1723003 2.0962999 -1.3929
9.1796999 2.0518999 -1.4313999
9.1499004 2.0581 -1.455
9.1385002 2.1031001 -1.5073
9.1286001 2.0874 -1.4808
9.1461 2.1737001 -1.4503
9.1370001 2.1636 -1.4446
9.1468 2.1593001 -1.4989001
9.1316996 2.1064999 -1.4997
9.1485996 2.1131001 -1.4009
9.1758003 2.0497999 -1.4392999
9.1286001 2.1538 -1.4521
9.1394997 2.1468999 -1.5012
9.1288004 2.0841 -1.4759001
9.1303997 2.1349001 -1.4236
9.1602001 2.0971999 -1.3972
9.1362 2.0822001 -1.4911
9.1517 2.1707001 -1.4298
9.1456003 2.152 -1.4147
9.1362 2.1141 -1.5068001
9.1310997 2.1013999 -1.497
9.1434002 2.1429999 -1.4111
9.1698999 2.0638001 -1.4159
9.1393995 2.1149001 -1.5103
9.1454 2.1228001 -1.4033999
9.1434002 2.0646 -1.4461
9.1450996 2.1677999 -1.4844
9.1321001 2.1131999 -1.4174
9.1448002 2.0762 -1.4220001
9.1297998 2.0974 -1.4262
9.1547003 2.0671999 -1.4222
9.1348 2.1630001 -1.4654
9.1469002 2.1013 -1.5146
9.1244001 2.1421001 -1.4744999
9.1220999 2.1392 -1.4665
9.1616001 2.0789001 -1.4058
9.1578999 2.0908 -1.4009
9.1388998 2.1443999 -1.4168
9.1675997 2.0562999 -1.4289
9.1456003 2.1136 -1.5158
9.1239996 2.1099999 -1.4327
9.1522999 2.0755999 -1.4148999
9.1190996 2.1101999 -1.4529999
9.1687002 2.0494001 -1.469
9.1295996 2.0876999 -1.4839
9.1422997 2.1182001 -1.4058
9.1775999 2.0632 -1.4137
9.1304998 2.1459 -1.4877
9.1504002 2.0854001 -1.5101
9.1660004 2.0606 -1.4225
9.1445999 2.0659001 -1.4388
9.1560001 2.0741999 -1.5057
9.1674004 2.1422 -1.5233001
9.1556997 2.0581999 -1.4812
9.1335001 2.0736001 -1.4636
9.1377001 2.0992 -1.4139
9.1355 2.1038001 -1.4148999
9.1464005 2.1605 -1.4218
9.1222 2.1392 -1.4515001
9.1459999 2.0617001 -1.4696
9.1210003 2.1287999 -1.444
9.1667004 2.0502 -1.4491
9.1315002 2.1208 -1.5008
9.1569996 2.0574999 -1.4376
9.1582003 2.1654 -1.4161
9.1799002 2.0660999 -1.4099
9.1540003 2.1156001 -1.5217
9.1529999 2.0588 -1.4780999
9.1251001 2.1270001 -1.4883
9.1601 2.0994999 -1.5224
9.1636 2.1723001 -1.4208
9.1637001 2.1349001 -1.3947001
9.1252003 2.1103001 -1.4298
9.1513996 2.0799 -1.507
9.1335001 2.1429999 -1.4956
9.1608 2.1342001 -1.3958
9.1310997 2.1578 -1.4668
9.1450005 2.1691 -1.4814
9.1536999 2.1324999 -1.3992
9.1208 2.135 -1.4653
9.1543999 2.0557001 -1.4507
9.1281004 2.0815001 -1.4612
9.1539001 2.0969 -1.4008
9.1448002 2.0985 -1.4069999
9.1595001 2.0682001 -1.4169
9.1701002 2.0497999 -1.4737999
9.1527996 2.1709001 -1.4902
9.1293001 2.0818 -1.4463
9.1597004 2.0704 -1.5046
9.1487999 2.1029 -1.5165
9.1272001 2.0931001 -1.4838001
9.1829004 2.0713 -1.4045
9.1451998 2.0843 -1.5046999
9.1452999 2.0616 -1.4541
9.1557999 2.0548 -1.4675
9.1826 2.0548999 -1.4244
9.1360998 2.0709 -1.4515001
9.1225004 2.1043999 -1.4395
9.1287003 2.1345 -1.4263999
9.1492004 2.1018 -1.5165
9.1296997 2.0797 -1.4677
9.1674004 2.0502999 -1.4719
9.1328001 2.1056001 -1.4179
9.1652002 2.0639999 -1.4182
9.1511002 2.178 -1.4618
9.1232996 2.0922999 -1.4529999
9.1456003 2.0660999 -1.4827
9.1632004 2.0541 -1.4804
9.177 2.0513 -1.4341
9.1546001 2.148 -1.5142
9.1400995 2.1278999 -1.4089
9.1441002 2.0658 -1.4402
9.1203003 2.1117001 -1.4442
9.1423998 2.0689001 -1.4823
9.1686001 2.0539999 -1.4858
9.1366997 2.0881 -1.4974
9.1522999 2.0790999 -1.5071
9.1626997 2.0655 -1.4179
9.1472998 2.1751001 -1.4538
9.1548996 2.1338999 -1.5201
9.1387997 2.0795 -1.4266
9.1203003 2.1015 -1.4625
9.1455002 2.0974 -1.4068
9.1590996 2.0943999 -1.5202
9.1560001 2.0799999 -1.4084001
9.1243 2.1087 -1.4866
9.1192999 2.1113999 -1.4500999
9.1283998 2.0934 -1.487
9.1325998 2.1605 -1.462
9.1721001 2.0974 -1.3926001
9.1567001 2.0538001 -1.4601001
9.1283998 2.1515 -1.4456
9.1671 2.0502999 -1.4476
9.1513004 2.1371 -1.4021
9.1615 2.0573001 -1.4323
9.1271 2.0838001 -1.4533
9.1260996 2.1363001 -1.433
9.1542997 2.0603001 -1.4346
9.1484003 2.0711999 -1.4953001
9.1301003 2.0832 -1.4787
9.1370001 2.1659 -1.4619
9.1292 2.1333001 -1.4249001
9.1531 2.0827 -1.5104001
9.1496 2.0613999 -1.4400001
9.1457005 2.0962 -1.4071
9.1282997 2.1443 -1.4843
9.1202002 2.1129999 -1.4442
9.1389999 2.0827999 -1.4960999
9.1408997 2.0753 -1.4904
9.1499004 2.1689999 -1.4292001
9.1414003 2.1545999 -1.4972
9.1548996 2.0959001 -1.5184
9.1253996 2.1436 -1.4763
9.1791 2.0541 -1.4269
9.1487999 2.0887001 -1.5108
9.1220999 2.1236999 -1.4814
9.1485996 2.1687 -1.4305
9.1654997 2.0499001 -1.4625
9.1308002 2.1257 -1.4991
9.1195002 2.1115 -1.4486001
9.1457996 2.1034999 -1.4046
9.1302996 2.0866001 -1.4843
9.1297998 2.1445999 -1.4875
9.1362 2.0776999 -1.4337
9.1313 2.1064999 -1.4198
9.1275997 2.1441 -1.4827
9.1337004 2.0874 -1.4921
9.1297998 2.0808001 -1.4467
9.1316004 2.1196001 -1.4179
9.1381998 2.0701001 -1.4741
9.1241999 2.1256001 -1.4323
9.1388998 2.0725 -1.4369
9.1372004 2.1647999 -1.471
9.1520004 2.1782999 -1.4531
9.1194 2.118 -1.4476
9.1751003 2.0750999 -1.4031
9.1526003 2.1784 -1.4681
9.1550999 2.0546999 -1.4614
9.1409998 2.1242001 -1.4074
9.1643 2.1194 -1.3922
9.1601 2.0522001 -1.4557
9.1589003 2.1466 -1.4014
9.1455002 2.0855999 -1.413
9.1222 2.1019001 -1.4764
9.1427002 2.0861001 -1.5034
9.1689997 2.0658 -1.505
9.1324997 2.1364999 -1.421
9.1552 2.0727999 -1.4152
9.1567001 2.0562 -1.4421
9.1219997 2.1315999 -1.4419
9.1217003 2.1391001 -1.4604
9.1653996 2.0650001 -1.4168
9.1450005 2.1370001 -1.512
9.1758003 2.0557001 -1.4252
9.1785002 2.0527999 -1.4298
9.1690998 2.0495 -1.4706
9.1420002 2.1283 -1.5118001
9.1705999 2.0901 -1.3957
9.1549997 2.1624999 -1.4155
9.1561003 2.0548999 -1.4495
9.1400003 2.0704999 -1.4804
9.1304998 2.0976 -1.4248
9.1587 2.122 -1.3947999
9.1424999 2.1695001 -1.4450999
9.1520004 2.1461999 -1.5134
9.1412001 2.1164999 -1.4068
9.1267004 2.0943 -1.4837
9.1701002 2.1671 -1.411
9.1274004 2.1366 -1.4302
9.1218004 2.1379001 -1.4514
9.1189003 2.1101 -1.4632
9.1279001 2.1491001 -1.4425
9.1330996 2.1491001 -1.4897
9.1664 2.0881 -1.3981
9.1188002 2.1127 -1.4651
9.1415005 2.0697 -1.4821
9.1403999 2.1689999 -1.4523
9.1253996 2.0867 -1.4622
9.1204004 2.1336999 -1.4643
9.1328001 2.1185 -1.4162
9.1403999 2.1600001 -1.4894
9.1681004 2.0504999 -1.4448
9.1843996 2.053 -1.4276
9.1716003 2.0501001 -1.477
9.1414003 2.0941 -1.4121
9.1491003 2.0646999 -1.4859
9.1254997 2.1349001 -1.4335001
9.1648998 2.0509 -1.4488
9.1255999 2.0940001 -1.4387
9.1613998 2.1034999 -1.3949
9.1316004 2.0869 -1.4876
9.132 2.1143999 -1.4174
9.1654997 2.0809 -1.4025
9.1392002 2.1640999 -1.4797
9.1645002 2.0508001 -1.4684
9.1561003 2.1010001 -1.3982
9.1342001 2.0771999 -1.4394
9.1275997 2.1329 -1.4277
9.1479998 2.1142001 -1.5177
9.1505003 2.1382 -1.5159
9.1589003 2.1233001 -1.3947999
9.1292 2.0796001 -1.4586
9.1920004 2.0581 -1.4184
9.1302996 2.1372001 -1.494
9.1520996 2.1763 -1.4425
9.1705999 2.0532999 -1.4332
9.1752005 2.089 -1.3949
9.1225004 2.1393001 -1.4696
9.1204004 2.1285999 -1.4722
9.1578999 2.0541 -1.4485
9.1528997 2.0918 -1.4035
9.1613998 2.1122 -1.3936
9.1232004 2.1419001 -1.4683
9.1653996 2.0558 -1.4872
9.1348 2.1630001 -1.4533
9.1506996 2.1368999 -1.5165
9.1756001 2.0627 -1.4148999
9.1781998 2.0516 -1.4327
9.1323004 2.0780001 -1.4437
9.1416998 2.1438 -1.5057
9.1479998 2.1549001 -1.5043
9.1330004 2.1263001 -1.4168
9.1512003 2.0822001 -1.5086
9.1723003 2.0562 -1.426
9.1215 2.1338999 -1.4464
9.1497002 2.1767001 -1.4524
9.1407003 2.0962 -1.5071
9.1384001 2.1405001 -1.5038
9.132 2.1592 -1.4664
9.1562004 2.0639999 -1.4936
9.1587 2.1349001 -1.397
9.1374998 2.0804 -1.4913
9.1752996 2.0485001 -1.4742
9.1421003 2.1336999 -1.5105
9.1492996 2.0841999 -1.4105
9.1722002 2.0732999 -1.4054
9.132 2.1078999 -1.4184
9.1370001 2.0813 -1.4915
9.1315002 2.0822999 -1.4813
9.1212997 2.1378 -1.4603
9.1424999 2.1245 -1.5129
9.1434002 2.0690999 -1.4342
9.1188002 2.119 -1.4521
9.1736002 2.0517001 -1.4351
9.1684999 2.0792999 -1.4023
9.1396999 2.1587999 -1.4899
9.1402998 2.1666999 -1.476
9.1213999 2.1301 -1.4758
9.1297998 2.0806999 -1.472
9.1555004 2.0627 -1.4907
9.1455002 2.0739999 -1.4953001
9.1568003 2.062 -1.4909
9.1396999 2.082 -1.4226
9.1386003 2.1675 -1.455
9.1358004 2.1544001 -1.4302
9.1422997 2.0966001 -1.5089
9.1470003 2.1499 -1.4118
9.1468 2.0709 -1.426
9.1300001 2.1192 -1.4987
9.1514997 2.0987999 -1.4017
9.1356001 2.0939 -1.4191
9.1325998 2.0968001 -1.4218
9.1609001 2.0674 -1.4168
9.1268997 2.1378 -1.4868
9.1608 2.0523 -1.4679
9.1217003 2.0978999 -1.4683
9.1203003 2.1066 -1.4717
9.1268997 2.1512001 -1.4543999
9.1364002 2.1473999 -1.4222
9.1427002 2.1143999 -1.4055001
9.1365004 2.1115999 -1.4119999
9.1375999 2.1626999 -1.4402
9.1466999 2.0732999 -1.423
9.1507998 2.1214001 -1.3993
9.1852999 2.0518999 -1.4892
9.1689997 2.0829999 -1.3997999
9.1485004 2.1196001 -1.4008
9.1669998 2.0847001 -1.3996
9.1540003 2.1454 -1.5152
9.1323004 2.1377001 -1.4219
9.1518002 2.1062 -1.3996
9.1236 2.1085999 -1.4341
9.1191998 2.1243999 -1.4677
9.1524 2.1652 -1.4981
9.1613998 2.0548999 -1.4385
9.1609001 2.0536001 -1.4438
9.1496 2.1767001 -1.466
9.1419001 2.1671 -1.4793
9.1194 2.1168001 -1.4714
9.1288004 2.1085 -1.4957
9.1724005 2.0883999 -1.3959
9.1454 2.1241 -1.4035
9.1238003 2.0912001 -1.4669
9.1624002 2.0824001 -1.403
9.1346998 2.0888 -1.495
9.1410999 2.1545 -1.4220001
9.1202002 2.1273 -1.4722
9.1328001 2.1068001 -1.5014
9.1885004 2.0539 -1.4253
9.1491003 2.0994 -1.4032
9.1203003 2.1312001 -1.4687001
9.1393003 2.1587999 -1.4297
9.1394997 2.0671 -1.4519
9.1197004 2.1285 -1.4513
9.1205997 2.1040001 -1.4708
9.1613998 2.0560999 -1.4352
9.1632996 2.0931001 -1.3972
9.1767998 2.0546999 -1.4266
9.1489 2.1352999 -1.4032
9.1342001 2.0738001 -1.4486001
9.1218004 2.1366 -1.4486001
9.1407003 2.1062 -1.4085
9.1704998 2.0673001 -1.4116
9.1496 2.0841999 -1.5087
9.1476002 2.0941999 -1.5125999
9.1203003 2.1336999 -1.4628
9.1674995 2.0504 -1.4462
9.1557999 2.0572 -1.4404
9.1398001 2.1187999 -1.5108
9.1334 2.1515 -1.4313
9.1596003 2.0545001 -1.4427
9.1314001 2.1001999 -1.497
9.1662998 2.0534999 -1.4823999
9.1702995 2.0706 -1.5105
9.1452999 2.1735001 -1.4532
9.1218996 2.1391001 -1.465
9.1582003 2.1336 -1.3969001
9.1355 2.1334 -1.5034
9.1318998 2.1054001 -1.4191999
9.151 2.1149001 -1.3990999
9.1562996 2.1705 -1.4242001
9.1258001 2.1105001 -1.4284
9.1241999 2.1445 -1.4505
9.1583996 2.0541999 -1.4724
9.1798 2.0637 -1.4125
9.1251001 2.1447001 -1.4732
9.1724997 2.0502999 -1.4787
9.1302996 2.1205001 -1.4991
9.1634998 2.0506001 -1.4607
9.1402998 2.0878 -1.5019
9.1618004 2.0513999 -1.4559
9.1500998 2.1589 -1.4162
9.1443005 2.1224999 -1.5147001
9.1506004 2.1252999 -1.3997999
9.1409998 2.1691 -1.4493001
9.1473999 2.0871 -1.5087
9.1392002 2.0669999 -1.4636
9.1257 2.0940001 -1.4806
9.1188002 2.1152 -1.4667
9.1385002 2.1289001 -1.5082
9.1583996 2.0862 -1.4029
9.1534996 2.0646999 -1.4270999
9.1321001 2.1287 -1.4186
9.1450005 2.1733999 -1.4546
9.1289997 2.1528001 -1.4729
9.1271 2.1464 -1.4407001
9.1357002 2.0762999 -1.4818
9.1314001 2.1533 -1.4385999
9.1232004 2.1238999 -1.4845999
9.1746998 2.0483 -1.4726
9.1261997 2.145 -1.4417
9.1317997 2.0967 -1.4231
9.1718998 2.0857999 -1.3973
9.1464996 2.1738 -1.4488
9.1194 2.1101999 -1.45
9.1412001 2.0662999 -1.4473
9.1337004 2.1617999 -1.4546
9.1434002 2.0734999 -1.4270999
9.1711998 2.0488 -1.4703
9.1622 2.0551 -1.4821
9.1266003 2.0847001 -1.4533
9.1479998 2.0978999 -1.5144
9.1490002 2.0969 -1.5148
9.1715002 2.063 -1.4161
9.1341 2.1619 -1.4517
9.1450996 2.1589 -1.4215
9.1753998 2.0604999 -1.4177999
9.1251001 2.1347001 -1.4845999
9.1330996 2.0757999 -1.4723001
9.1391001 2.1032 -1.4109
9.1508999 2.1434 -1.4049
9.1480999 2.0804 -1.4144
9.1309996 2.1052001 -1.4206001
9.1416998 2.0731001 -1.4886
9.1372995 2.0943 -1.5023
9.1276999 2.1501999 -1.4455
9.1596003 2.0532999 -1.4481
9.1248999 2.1013 -1.4342999
9.1356001 2.0776 -1.4351
9.1471004 2.1245 -1.4022
9.1282997 2.0827999 -1.4483
9.1357002 2.1554999 -1.4318
9.1338997 2.0817001 -1.4862
9.1302996 2.0787001 -1.4512
9.1815996 2.0631001 -1.4128
9.1423998 2.1628001 -1.4303
9.1618004 2.0525 -1.4469
9.1204996 2.1003001 -1.4607
9.1633997 2.0565 -1.4869
9.1335001 2.1173 -1.5037
9.1225996 2.0933001 -1.4605
9.1695004 2.0531001 -1.4844
9.1401997 2.0671999 -1.4713
9.1478004 2.1538 -1.4139
9.1272001 2.1428001 -1.4358
9.1458998 2.0673001 -1.4858
9.1590004 2.0992999 -1.3971
9.1513004 2.0618 -1.4357001
9.1714001 2.0789001 -1.4015
9.1466999 2.0618999 -1.4456
9.1357002 2.1412001 -1.4189
9.1787996 2.0479 -1.4747
9.1290998 2.1176 -1.4216
9.1334 2.1573999 -1.4405
9.1360998 2.0788 -1.4322
9.1430998 2.155 -1.499
9.1674995 2.1036999 -1.3924
9.1469002 2.1717 -1.479
9.1318998 2.0755 -1.4601001
9.1485996 2.059 -1.4545
9.1599998 2.0983 -1.3969001
9.1594 2.1635001 -1.4132
9.1550999 2.0559001 -1.472
9.1539001 2.0759001 -1.5057
9.1365995 2.1324 -1.5051
9.1282997 2.1240001 -1.4234999
9.1437998 2.1184001 -1.5145
9.1731005 2.0551 -1.4276
9.1356001 2.1631999 -1.4489
9.1487999 2.0771 -1.5023
9.1780005 2.0465 -1.4634
9.1441002 2.1675999 -1.4359
9.1506996 2.0639999 -1.487
9.1431999 2.1313 -1.4067
9.1400003 2.0785 -1.4931
9.1722002 2.0825 -1.399
9.1358995 2.0857999 -1.4246
9.1442003 2.0681 -1.4346
9.1882 2.0573001 -1.4196
9.1539001 2.0555999 -1.4536999
9.1199999 2.1064999 -1.4491
9.1378002 2.1501999 -1.4225
9.1299 2.0843999 -1.4387
9.1391001 2.0681 -1.4486001
9.1211004 2.1234 -1.4782
9.1253996 2.1484001 -1.4556
9.1604996 2.073 -1.4112
9.1466999 2.0915999 -1.4083
9.1294003 2.0796001 -1.4541
9.1700001 2.0604 -1.4986
9.1364002 2.1557 -1.4306999
9.1794004 2.059 -1.4186
9.1469002 2.1127 -1.5168
9.1215 2.1262 -1.4786
9.1275997 2.1489999 -1.4756
9.1645002 2.0567999 -1.4886
9.1345997 2.1619999 -1.4699
9.1325998 2.1513 -1.4327
9.1378002 2.0955999 -1.5036
9.1415005 2.1535001 -1.4205
9.1577997 2.0597999 -1.4879
9.1505003 2.1240001 -1.3997
9.1492996 2.1610999 -1.4191999
9.1360998 2.1645 -1.4663
9.1378002 2.1465001 -1.4994
9.1416998 2.1475 -1.4155
9.1506996 2.0583 -1.4701999
9.1377001 2.1605999 -1.4356
9.1366997 2.0778 -1.4865
9.1313 2.1414001 -1.4258
9.1687002 2.0933001 -1.395
9.1389999 2.0852001 -1.4983
9.1620998 2.0513999 -1.4651
9.1475 2.0609 -1.4471999
9.1332998 2.0736001 -1.459
9.1209002 2.135 -1.4668
9.1443996 2.1698999 -1.4408
9.1517 2.0609 -1.4372
9.1382999 2.1538 -1.4937
9.1386003 2.1147001 -1.4094
9.1350002 2.0716 -1.4559
9.1273003 2.1185999 -1.4247
9.1336002 2.1317 -1.4174
9.1196003 2.1076 -1.4681
9.1773005 2.0609 -1.4166
9.1489 2.0637 -1.4354
9.1672001 2.0699 -1.5085
9.1588001 2.1401999 -1.5203
9.1240997 2.0961001 -1.4777
9.1457005 2.1668 -1.4315
9.1606998 2.0662999 -1.5007
9.1624002 2.0539 -1.4788001
9.1622 2.0525999 -1.4455
9.1805 2.0764 -1.4009
9.1379995 2.0701001 -1.4454
9.1552 2.0831001 -1.5122
9.1238003 2.132 -1.4361
9.1392002 2.1575 -1.4281
9.1500998 2.0971999 -1.4032
9.1272001 2.0968001 -1.4318
9.1373997 2.1582999 -1.4865
9.1738005 2.0759001 -1.5161
9.1571999 2.1594 -1.4109
9.1273003 2.0896001 -1.4388
9.1785002 2.0539 -1.4915
9.1457005 2.1726 -1.4728
9.1374998 2.1647999 -1.4725
9.1583996 2.1154001 -1.3947999
9.1503 2.0984001 -1.5163
9.1549997 2.0996001 -1.3992
9.1442003 2.1599 -1.4952
9.1264 2.145 -1.478
9.1508999 2.1357999 -1.4019001
9.1317997 2.1592 -1.4648
9.1484003 2.1663001 -1.4268
9.1601 2.0648999 -1.4205
9.1192999 2.1284001 -1.4633
9.1653996 2.0499001 -1.4564
9.1568003 2.0539 -1.4543999
9.1364002 2.1052001 -1.5056
9.1239004 2.0899999 -1.4621
9.1334 2.1617 -1.4591
9.1774998 2.0585001 -1.4198999
9.1403999 2.0683999 -1.4427
9.1483002 2.1103001 -1.5176001
9.1553001 2.0832 -1.4066
9.1609001 2.1772001 -1.4313999
9.1542997 2.0579 -1.478
9.1247997 2.0938001 -1.4773999
9.1212997 2.1378 -1.4572999
9.1406002 2.0764999 -1.4916
9.1206999 2.1106 -1.4427
9.1300001 2.1398001 -1.4919
9.1484003 2.0645001 -1.4345
9.1564999 2.1545999 -1.4076
9.1239004 2.1191001 -1.4318
9.1198997 2.1038001 -1.4647
9.1377001 2.0711999 -1.4759001
9.1364002 2.0709 -1.4696
9.1627998 2.0711999 -1.4115
9.1724005 2.0676999 -1.4104
9.1768999 2.0525 -1.4311
9.1787996 2.0736001 -1.4033
9.1363001 2.1589999 -1.4359
9.1279001 2.1159999 -1.4953001
9.1391001 2.0669999 -1.4564
9.1638002 2.0506999 -1.4653
9.1556997 2.0674 -1.4209
9.1396999 2.1677999 -1.4491
9.1555996 2.1507001 -1.4056
9.1428003 2.0838001 -1.4171
9.1428003 2.1684999 -1.478
9.1461 2.0776999 -1.5001
9.1245003 2.1434 -1.446
9.1485004 2.1182001 -1.5182
9.1709003 2.0581999 -1.4957
9.1625996 2.0515001 -1.4681
9.1206999 2.1156001 -1.4414001
9.1184998 2.1150999 -1.4561
9.1744003 2.0682001 -1.4092
9.1550999 2.0625999 -1.4288
9.1457005 2.0660999 -1.4359
9.1483002 2.0931001 -1.5127
9.1680002 2.0941999 -1.3949
9.1351004 2.1371 -1.5014
9.1274004 2.1524 -1.4561
9.1367998 2.0848 -1.4241
9.1233997 2.0911 -1.4593
9.1218996 2.1352999 -1.473
9.1328001 2.1341 -1.4194
9.1309004 2.1245999 -1.4194
9.1632996 2.0517001 -1.4713
9.1719999 2.0664999 -1.4118
9.1541996 2.0841999 -1.4067
9.1562004 2.1433001 -1.5176001
9.1183996 2.1164999 -1.4579999
9.1534996 2.0873001 -1.5136
9.1457996 2.1136999 -1.4029
9.1455002 2.1345 -1.4056
9.1218004 2.1185999 -1.4375
9.1480999 2.1673999 -1.4289
9.1323996 2.0813999 -1.4366
9.1379004 2.0873001 -1.4204
9.1667004 2.0502 -1.4701999
9.1279001 2.1110001 -1.4242001
9.1339998 2.1343999 -1.5010999
9.1486998 2.1515 -1.5075999
9.1831999 2.0539 -1.426
9.1293001 2.0948999 -1.4287
9.1197004 2.1296999 -1.4529001
9.1343002 2.0899 -1.4953001
9.1454 2.0616 -1.4662
9.1823997 2.0780001 -1.3995
9.1548996 2.0592 -1.4362
9.1429996 2.1661 -1.484
9.1445999 2.1482 -1.4129
9.1489 2.1341 -1.4028
9.1211996 2.1276 -1.4768
9.1288996 2.1294 -1.4238
9.1576004 2.0723 -1.4138
9.1413002 2.1498001 -1.4176
9.1434002 2.0678999 -1.4823999
9.1307001 2.1217999 -1.4193
9.1522999 2.0574999 -1.4716001
9.1644001 2.0518999 -1.4744999
9.1538 2.1428001 -1.4026
9.1285 2.1419001 -1.4317
9.1473999 2.1375999 -1.4051
9.1281004 2.1537001 -1.4622999
9.1442003 2.0897999 -1.5074
9.1197004 2.1285 -1.4679
9.1194 2.1206 -1.4477
9.1240997 2.0901 -1.4531
9.1469002 2.0641999 -1.4809999
9.1863003 2.0534 -1.4263999
9.1344004 2.1629 -1.4622999
9.1651001 2.108 -1.3925
9.1633997 2.0506001 -1.4592
9.1419001 2.1387 -1.5085
9.1306 2.1543 -1.443
9.1337004 2.0853 -1.4288
9.1229 2.1406 -1.4697
9.1414003 2.0754001 -1.4275
9.1625996 2.1073999 -1.3936
9.1677999 2.0977001 -1.3938
9.1459999 2.1603 -1.497
9.1539001 2.0634999 -1.4286
9.1532001 2.1064 -1.5203
9.1422005 2.0871999 -1.5037
9.1606998 2.0629001 -1.4960999
9.1507998 2.1264999 -1.3997999
9.1709003 2.1032 -1.3914
9.1316004 2.1208999 -1.4179
9.1323004 2.1475999 -1.4898
9.1269999 2.1415 -1.484
9.1415997 2.0846 -1.5010999
9.1197004 2.1103001 -1.4712
9.1459999 2.0718999 -1.4256001
9.1300001 2.1482999 -1.4349
9.1238003 2.1443999 -1.4534
9.1821003 2.0722001 -1.4038
9.1822004 2.0641999 -1.4114
9.1794004 2.0602 -1.4169
9.1482 2.1040001 -1.5164
9.1445999 2.0888 -1.5072
9.1387997 2.0818 -1.424
9.1426001 2.1707001 -1.4693
9.1184998 2.1217 -1.4581
9.1349001 2.1266 -1.5046
9.1484003 2.0623 -1.4398
9.1651001 2.0581 -1.4917001
9.1736002 2.1050999 -1.3903
9.1330996 2.1605999 -1.4515001
9.1364002 2.1580999 -1.4848
9.1218004 2.1210999 -1.4812
9.1719999 2.0676 -1.5082999
9.1672001 2.0574 -1.492
9.1562996 2.0708001 -1.5026
9.1295996 2.1294999 -1.4963
9.1344995 2.1357999 -1.5012
9.1747999 2.0531001 -1.4308
9.1429005 2.1259999 -1.5131
9.1636 2.1756999 -1.426
9.1527996 2.1152999 -1.3979
9.1362 2.0718999 -1.4727
9.1427002 2.1617 -1.4908
9.1310997 2.0834999 -1.4367
9.1259003 2.1449001 -1.4764
9.1394997 2.0669999 -1.4667
9.1296997 2.1296 -1.4225
9.1255999 2.0892 -1.4732
9.1518002 2.0685999 -1.4958
9.1330996 2.0794001 -1.4381
9.1359997 2.1612999 -1.4776
9.1548996 2.1275001 -1.3974
9.1899996 2.0517001 -1.4296
9.1267004 2.1510999 -1.4559
9.1269999 2.1145 -1.4936
9.1691999 2.0968001 -1.3936
9.1645002 2.0592 -1.4931999
9.1601 2.0638001 -1.4220001
9.1230001 2.1429999 -1.4578
9.1782999 2.0490999 -1.4792
9.1559 2.1603 -1.4126
9.1429996 2.0632999 -1.4562
9.1689997 2.0669 -1.5063
9.1508999 2.1108999 -1.5195
9.1286001 2.0804999 -1.4585
9.1216002 2.0967 -1.4641
9.1216002 2.1069 -1.478
9.1604996 2.1419001 -1.3983999
9.1715002 2.0571001 -1.4942
9.1400003 2.066 -1.4607
9.1391001 2.0715001 -1.4806
9.1211996 2.1131999 -1.4399
9.1559 2.0696001 -1.418
9.1675997 2.0492001 -1.4643
9.1356001 2.1644001 -1.4615999
9.1491003 2.171 -1.434
9.1590004 2.0544 -1.4441
9.1252003 2.0939 -1.479
9.1520996 2.1138999 -1.3983999
9.1569996 2.0585999 -1.4346
9.1724005 2.0478001 -1.4541
9.1190004 2.1256001 -1.4647
9.1465998 2.0940001 -1.4072
9.1506996 2.1122 -1.5195
9.1585999 2.0555 -1.4408
9.1391001 2.1677001 -1.4671
9.1194 2.1229999 -1.4704
9.1204996 2.1247001 -1.4754
9.1652002 2.0532999 -1.4807
9.1511002 2.1085999 -1.3996
9.1396999 2.1631999 -1.436
9.1268997 2.0906999 -1.4385
9.1503 2.1135001 -1.3996
9.1651001 2.0510001 -1.4715
9.1605997 2.0571001 -1.4335999
9.1493998 2.1403999 -1.5143
9.1309004 2.1578 -1.4532
9.1541004 2.154 -1.4088
9.1337996 2.1173999 -1.4148
9.1548004 2.0637 -1.4272
9.1202002 2.1092 -1.4456
9.1801004 2.0855 -1.3954999
9.1426001 2.1524999 -1.5007
9.1496 2.1600001 -1.4177001
9.1588001 2.0646 -1.497
9.1606998 2.1327 -1.3954
9.1342001 2.1596999 -1.4758
9.1573 2.1125 -1.3954999
9.1469002 2.0664001 -1.4331
9.1590004 2.1389 -1.5209
9.1438999 2.1057 -1.4056
9.1541004 2.1768 -1.4398
9.1652002 2.0499001 -1.4579
9.1513004 2.1545999 -1.4114
9.1204996 2.1027 -1.4686
9.1469002 2.1127 -1.4021
9.1290998 2.1552 -1.4643
9.1362 2.1602001 -1.4806
9.1555004 2.0809 -1.408
9.1434002 2.1721001 -1.4546
9.1302004 2.1542001 -1.4747
9.1646996 2.0982001 -1.3947999
9.1718998 2.1071 -1.3904001
9.1370001 2.1027 -1.5056
9.1477003 2.1115999 -1.4016
9.1745005 2.0738001 -1.4042
9.1444998 2.1665001 -1.4329
9.1393003 2.0682001 -1.4471
9.1288996 2.0829 -1.474
9.1362 2.0731001 -1.4426
9.1329002 2.1605999 -1.4529999
9.1698999 2.0567999 -1.4262
9.1533003 2.1721001 -1.4301
9.1403999 2.1294 -1.5101
9.1476002 2.0599999 -1.4517
9.1584997 2.0543001 -1.4456
9.1465998 2.1398001 -1.4066
9.1501999 2.1635001 -1.498
9.1843996 2.0553 -1.4232
9.1735001 2.0504999 -1.4804
9.1634998 2.0506001 -1.4622
9.1552 2.0617001 -1.4303
9.1226997 2.1417999 -1.4547
9.1210003 2.1210001 -1.4404
9.1244001 2.1445 -1.4701
9.1278 2.1417 -1.4331
9.1525002 2.1140001 -1.5208
9.1203003 2.1156001 -1.476
9.1754999 2.0592 -1.4994
9.1184998 2.1138999 -1.4621
9.1332998 2.1134 -1.5033
9.1424999 2.0769 -1.4949
9.1491003 2.1479001 -1.5103
9.1391001 2.1596999 -1.4877
9.1414003 2.0915999 -1.5056
9.1348 2.0774 -1.4816999
9.1281996 2.0897999 -1.4359
9.1728001 2.069 -1.51
9.1355 2.1484001 -1.4243
9.1314001 2.1338 -1.4976
9.1232004 2.1319001 -1.4812
9.1463003 2.132 -1.4042
9.1427002 2.069 -1.4356
9.1309004 2.1436999 -1.4907
9.158 2.0553999 -1.4421999
9.1493998 2.1094 -1.5183001
9.1457005 2.1636 -1.4924999
9.1927996 2.062 -1.4132
9.1436005 2.1145999 -1.5143
9.1695004 2.0543001 -1.4874001
9.1286001 2.1515999 -1.4743
9.1512003 2.1293001 -1.4
9.1707001 2.0797999 -1.4011
9.1336002 2.0885999 -1.4258
9.1569996 2.1099999 -1.3959
9.1379004 2.1628001 -1.4795001
9.1375999 2.1143999 -1.5085
9.1569996 2.0539 -1.4529001
9.1704998 2.1169 -1.39
9.1229 2.0946 -1.4699
9.1190996 2.1271 -1.4554
9.1386995 2.1045001 -1.4109
9.1422997 2.1338 -1.4082
9.1740999 2.0659001 -1.5073
9.1624002 2.0643001 -1.4994
9.1611996 2.0664001 -1.4177001
9.1506996 2.0762999 -1.5034
9.1384001 2.0678999 -1.465
9.1430998 2.1605999 -1.4929
9.1281004 2.1537001 -1.4562
9.1337004 2.1419001 -1.4967999
9.1321001 2.1403 -1.4953001
9.1903 2.0602 -1.4154
9.1448002 2.1517999 -1.5037
9.1267996 2.1327 -1.4291
9.1408997 2.0695 -1.4805
9.1375999 2.1441 -1.4181
9.1737003 2.0494001 -1.4766999
9.1707001 2.0499001 -1.4754
9.1772003 2.0501001 -1.4818
9.1196003 2.118 -1.4461
9.1278 2.0861001 -1.4764
9.1521997 2.0720999 -1.5005
9.1294003 2.1552 -1.4673001
9.1496 2.1315999 -1.4016
9.1267996 2.0919001 -1.4373
9.1393995 2.0924001 -1.4151
9.1504002 2.0810001 -1.4118
9.1372004 2.0699 -1.4694
9.1694002 2.0495999 -1.4721
9.1415997 2.0652001 -1.4684
9.1640997 2.0713999 -1.5084
9.1204996 2.1003001 -1.4622
9.1316004 2.1579001 -1.4487
9.1296997 2.1347001 -1.4944
9.1271 2.1440001 -1.4373
9.1342001 2.1619 -1.4683
9.1375999 2.1489 -1.4216
9.1661997 2.0927 -1.3961
9.1486998 2.1248 -1.401
9.1301003 2.105 -1.4220001
9.1629 2.0862 -1.4005001
9.1666002 2.0676 -1.5059
9.1479998 2.1596 -1.4189
9.1590996 2.0625999 -1.4943
9.1816998 2.158 -1.5188
9.1308002 2.1166999 -1.4189
9.1185999 2.1229 -1.4567
9.1295004 2.0843 -1.479
9.1500998 2.0627 -1.4355
9.1413002 2.1682 -1.4747
9.1412001 2.1126001 -1.512
9.1306 2.1206 -1.4193
9.1774998 2.0723 -1.4046
9.1424999 2.1206999 -1.4056
9.1906004 2.059 -1.4170001
9.1318998 2.0813 -1.438
9.1695004 2.0910001 -1.3956
9.1485004 2.1182001 -1.4007
9.1496 2.0739 -1.419
9.1272001 2.0871 -1.476
9.1360998 2.1362 -1.4158
9.1471996 2.0688 -1.4905
9.1486998 2.1454 -1.5114
9.1533003 2.1609001 -1.4152
9.1548996 2.1355 -1.3992
9.1630001 2.132 -1.3942
9.1569004 2.1498001 -1.4042
9.1478004 2.1052001 -1.5164
9.1535997 2.0567 -1.4718
9.1413002 2.1703999 -1.4572999
9.1350002 2.0739999 -1.4442
9.1455002 2.1252999 -1.4035
9.1796999 2.0888 -1.3940001
9.1756001 2.0522001 -1.4324
9.1294003 2.0818 -1.4735
9.1424999 2.1054001 -1.4069
9.1330996 2.1094999 -1.5025001
9.1367998 2.0697999 -1.4663
9.1617002 2.0513 -1.4605
9.1412001 2.1703 -1.4618
9.1396999 2.1458001 -1.4166
9.1218004 2.0955 -1.4592
9.1525002 2.0917001 -1.5152
9.1356001 2.0987999 -1.4165
9.1183996 2.1150999 -1.4606
9.1525002 2.1089001 -1.5203
9.1401997 2.1578 -1.4268
9.1348 2.1345999 -1.4168
9.1267004 2.1510999 -1.4634
9.1490002 2.0613 -1.4776
9.1273003 2.1501 -1.4469
9.1533003 2.1478 -1.4054
9.1323004 2.0919001 -1.4936
9.1465998 2.0846 -1.5064
9.1559 2.0560999 -1.4751
9.1208 2.1004 -1.4668
9.1599998 2.0520999 -1.4572001
9.1633997 2.0908999 -1.398
9.1442003 2.1621001 -1.4924999
9.1252003 2.1436 -1.4431
9.1554003 2.1303 -1.3976001
9.1412001 2.158 -1.4934
9.1225996 2.1329999 -1.4405
9.1535997 2.1733 -1.432
9.1486998 2.1763999 -1.4629
9.1378002 2.1649001 -1.4454
9.1456003 2.1163001 -1.4029
9.1197996 2.1064 -1.4686
9.1410999 2.1256001 -1.4074
9.1798 2.0862999 -1.5238
9.1278 2.1342001 -1.4278001
9.1211996 2.1066999 -1.4764
9.1625004 2.0667 -1.5025001
9.1424999 2.0815001 -1.4996001
9.1681004 2.0493 -1.4674
9.1341 2.1443999 -1.4957
9.1542997 2.1777999 -1.4426
9.1203003 2.1285999 -1.4469
9.1367998 2.145 -1.4992
9.1190004 2.1217999 -1.4507
9.1191998 2.1217999 -1.4492
9.151 2.0753 -1.4162
9.1395998 2.0671 -1.4682
9.1318998 2.1500001 -1.4325
9.1535997 2.1324 -1.5197999
9.1296997 2.1565001 -1.4596
9.1380997 2.0678999 -1.4604
9.1260996 2.1473999 -1.4463
9.1278 2.1070001 -1.4253
9.1515999 2.0685999 -1.4233
9.1583004 2.053 -1.4555
9.1395998 2.1175001 -1.5107
9.1707001 2.0685999 -1.4101
9.1715002 2.0822001 -1.5196
9.1402998 2.1482 -1.5014
9.1452999 2.0998001 -1.406
9.1197004 2.1296999 -1.4664
9.1218996 2.1224999 -1.4376
9.1491003 2.0748 -1.5003999
9.1410999 2.1691 -1.4705
9.1436996 2.1586001 -1.4227999
9.1245003 2.1101999 -1.4312
9.1398001 2.115 -1.4081
9.1575003 2.0539999 -1.4499
9.1374998 2.1617 -1.4809
9.1318998 2.1092 -1.5008
9.1212997 2.0991001 -1.4683
9.1641998 2.0613 -1.4225
9.1473999 2.1752 -1.4658999
9.1787996 2.0564001 -1.4227
9.1330004 2.1501999 -1.4885
9.1449003 2.1554 -1.5008
9.1451998 2.089 -1.411
9.1466999 2.175 -1.4613
9.1311998 2.1362 -1.4962
9.1660004 2.0546999 -1.4854
9.1757002 2.1068001 -1.3895
9.1653004 2.0704999 -1.5082
9.1631002 2.0588 -1.4914
9.1189003 2.1191001 -1.4506
9.1568003 2.0999999 -1.398
9.1230001 2.1431 -1.4608001
9.1314001 2.1387999 -1.4951
9.1381998 2.1224 -1.4099
9.1272001 2.1477001 -1.4766999
9.1464005 2.1592 -1.4202
9.1381998 2.1561 -1.4279
9.1506996 2.1278 -1.5189
9.1294003 2.1384001 -1.4918
9.1494999 2.0704999 -1.4231
9.1343002 2.1629 -1.4608001
9.1429005 2.1719 -1.4606
9.1190996 2.1191001 -1.4491
9.1567001 2.1189001 -1.3956
9.1373997 2.0919001 -1.4177999
9.1238003 2.0899999 -1.459
9.1561003 2.0822999 -1.4066
9.1700001 2.0485001 -1.4655
9.1384001 2.1661999 -1.4712
9.1542997 2.0738001 -1.4148
9.1423998 2.1440001 -1.4125
9.1247997 2.0878 -1.4621
9.1183996 2.1203001 -1.4581
9.1429996 2.1719999 -1.4591
9.1718998 2.0476999 -1.4601001
9.1441002 2.0910001 -1.4109
9.1472998 2.131 -1.5158
9.1265001 2.0847001 -1.4653
9.1512003 2.0880001 -1.5124
9.1559 2.0662999 -1.4220999
9.1304998 2.1508 -1.4369
9.1567001 2.0538001 -1.4631
9.1357002 2.0741999 -1.4413
9.1399002 2.1543 -1.4233
9.1443005 2.0703001 -1.4886
9.1274004 2.1364999 -1.489
9.1758003 2.0867 -1.5232
9.1332998 2.1466 -1.4263
9.1197004 2.1257999 -1.4708
9.1310997 2.1285 -1.4198999
9.1499004 2.1008 -1.4021
9.1556997 2.0606 -1.4318
9.1476002 2.165 -1.4931
9.1381998 2.0678999 -1.4559
9.1226997 2.1405001 -1.4500999
9.1299 2.1471 -1.4335999
9.1380997 2.0689001 -1.4694999
9.1386995 2.1619999 -1.4358
9.1223001 2.0957 -1.4684
9.1641998 2.0827999 -1.4018
9.1529999 2.0747001 -1.415
9.1212997 2.1350999 -1.4488
9.1219997 2.1250999 -1.438
9.1585999 2.0816 -1.4055001
9.1524 2.1684 -1.425
9.1477003 2.1489 -1.4104
9.1716995 2.056 -1.4924001
9.1258001 2.1206999 -1.4276
9.1507998 2.1726 -1.4346
9.1595001 2.0692999 -1.4155
9.1806002 2.0567999 -1.4215
9.1715002 2.0488999 -1.4718
9.1451998 2.0704999 -1.4903001
9.1243 2.1385 -1.4397
9.1280003 2.1537001 -1.4607
9.1456003 2.1384001 -1.5121
9.1517 2.1717 -1.4313999
9.1528997 2.1765001 -1.4411
9.1494999 2.1301 -1.4013
9.1415005 2.1602001 -1.4911
9.1388998 2.1630001 -1.4373
9.1429996 2.1478 -1.4141999
9.1307001 2.1554999 -1.4736
9.1292 2.1552 -1.4658
9.1339998 2.142 -1.4217
9.1857996 2.0508001 -1.432
9.1331997 2.1379001 -1.4205
9.1300001 2.1270001 -1.4212
9.1457996 2.0926001 -1.4085
9.1518002 2.0710001 -1.4989001
9.1349001 2.1531 -1.4301
9.1405001 2.1633999 -1.4346
9.1540003 2.0841 -1.5121
9.1539001 2.1115999 -1.5215
9.1555004 2.1084001 -1.3969001
9.1223001 2.1212001 -1.4361
9.1303997 2.1575999 -1.4591
9.1410999 2.0833001 -1.4995
9.1278 2.1514001 -1.4712
9.1212997 2.0978999 -1.4653
9.1267004 2.1487999 -1.4724
9.1477003 2.1271 -1.5168999
9.1381998 2.0827 -1.4239
9.1744003 2.0946 -1.3928
9.1377001 2.0688 -1.4665
9.1409998 2.1485 -1.4169
9.1452999 2.0616 -1.4529001
9.1513996 2.0583999 -1.4733
9.1297998 2.1152 -1.4985
9.1357002 2.0708001 -1.4545
9.1395998 2.1161001 -1.5107
9.125 2.1231999 -1.4893
9.1461 2.141 -1.4075
9.1489 2.1261001 -1.401
9.1198997 2.1115999 -1.4457
9.1431999 2.0655999 -1.4762
9.1576004 2.0917001 -1.5184
9.1338997 2.1148 -1.4147
9.1416998 2.0905001 -1.4136
9.1363001 2.0880001 -1.4220001
9.1658001 2.0641 -1.5014
9.1761999 2.0486 -1.4759001
9.1711998 2.1082001 -1.3904001
9.1569004 2.1241 -1.3958
9.1513004 2.0868001 -1.5118001
9.1823997 2.0525 -1.4289
9.1529999 2.0701001 -1.499
9.1570997 2.1673 -1.419
9.1410999 2.1473 -1.503
9.1723003 2.049 -1.4735
9.1239996 2.1229999 -1.4319
9.1407003 2.1011 -1.4098001
9.1419001 2.1558001 -1.4220999
9.1447001 2.1733 -1.4637001
9.1441002 2.1287999 -1.5137
9.1636 2.0506001 -1.4637001
9.1541996 2.0864 -1.4053
9.1430998 2.1719999 -1.4561
9.1248999 2.1445999 -1.4461
9.1402998 2.0739999 -1.4312
9.1339998 2.0725999 -1.46
9.1330004 2.1526 -1.4856
9.1318998 2.0778999 -1.4450999
9.1597996 2.0704999 -1.414
9.1759005 2.0497999 -1.4801
9.1196003 2.1064 -1.4671
9.1268997 2.1054001 -1.4914
9.1528997 2.1438999 -1.5153
9.1625004 2.0667 -1.4164
9.1525002 2.1524 -1.4088
9.1311998 2.1373999 -1.4956
9.1414003 2.1127 -1.4067
9.1482 2.1501999 -1.4108
9.1471004 2.1166999 -1.4017
9.1560001 2.0652001 -1.4954
9.1560001 2.0560999 -1.4435
9.1431999 2.1378 -1.5102
9.1366997 2.0710001 -1.4471
9.1343002 2.1433001 -1.4220999
9.1233997 2.1280999 -1.4349999
