# .PCD v0.7 - Point Cloud Data file format
VERSION 0.7
FIELDS x y z
SIZE 4 4 4
TYPE F F F
COUNT 1 1 1
WIDTH 1655
HEIGHT 1
VIEWPOINT 0 0 0 1 0 0 0
POINTS 1655
DATA ascii
9.7535 2.2456 0.4341
9.7419996 2.1707001 0.4797
9.7642002 2.1256001 0.46259999
9.7540998 2.2405 0.45640001
9.7370996 2.2104001 0.46790001
9.7427998 2.2033 0.47909999
9.7461996 2.2386999 0.44190001
9.7502003 2.1452 0.4738
9.7646999 2.122 0.45539999
9.7453003 2.1842999 0.48500001
9.7407999 2.2138 0.47099999
9.7368002 2.1898999 0.4752
9.7655001 2.1210001 0.45379999
9.7347002 2.2002001 0.46959999
9.7308998 2.2054 0.45969999
9.7587004 2.2202001 0.4844
9.7385998 2.2279999 0.44929999
9.7528 2.2428 0.41389999
9.7755003 2.1147001 0.44510001
9.7468004 2.2402 0.43529999
9.7344999 2.1894 0.472
9.7368002 2.1849 0.47549999
9.7833004 2.1115999 0.42559999
9.7447004 2.1633999 0.47999999
9.7867002 2.1110001 0.4348
9.7473001 2.1652 0.4833
9.7396002 2.1793001 0.47870001
9.7426004 2.2056999 0.4779
9.7504997 2.2397001 0.4515
9.7854004 2.1217 0.4689
9.7566996 2.1291001 0.46039999
9.7382002 2.2265999 0.45120001
9.7531996 2.2455001 0.43090001
9.7356005 2.1896 0.4736
9.7434998 2.2316999 0.45429999
9.7423 2.1695001 0.4797
9.7523003 2.2414 0.41069999
9.7460003 2.2284 0.4641
9.7463999 2.1675999 0.4833
9.7547998 2.1354001 0.46799999
9.7788 2.1129 0.4219
9.7489004 2.1489999 0.47569999
9.7498999 2.2421999 0.44049999
9.7629995 2.1254001 0.461
9.7847004 2.1178 0.46129999
9.7828999 2.1127 0.44409999
9.7319002 2.2033 0.4632
9.7566004 2.2437 0.4531
9.7547998 2.1275001 0.45410001
9.7332001 2.2072001 0.46329999
9.7444 2.2156999 0.4743
9.7602997 2.1379001 0.4761
9.7507 2.1673 0.48699999
9.7578001 2.1415 0.47760001
9.7558002 2.1289001 0.45879999
9.7540998 2.2458 0.4373
9.7393999 2.1854999 0.4788
9.7403002 2.1637001 0.47510001
9.7588997 2.1389999 0.4761
9.7806997 2.1145999 0.45039999
9.7482004 2.1475999 0.4738
9.7577 2.1293001 0.4621
9.7396002 2.2086999 0.4727
9.7507 2.2435999 0.428
9.7550001 2.1436999 0.4772
9.7423 2.1824 0.48199999
9.7287998 2.2049 0.4549
9.7468004 2.1596 0.4804
9.7455997 2.1831 0.4853
9.7694998 2.1182001 0.4508
9.7728004 2.1152 0.4434
9.7874002 2.1124001 0.44620001
9.7529001 2.1458001 0.47710001
9.7855997 2.1133001 0.449
9.7410002 2.1596999 0.47389999
9.7507 2.1659999 0.48660001
9.7445002 2.1791999 0.484
9.7442999 2.2024 0.48109999
9.7649002 2.1231999 0.45860001
9.7424002 2.2276001 0.45919999
9.7795 2.1131001 0.44240001
9.7391005 2.2184 0.4646
9.7432003 2.2368 0.43540001
9.7353001 2.1956 0.47209999
9.7460003 2.1580999 0.4788
9.7847996 2.1119001 0.44139999
9.7573004 2.1372001 0.47279999
9.7856998 2.1169 0.45969999
9.7475996 2.1694 0.48500001
9.7559996 2.1368999 0.47119999
9.7540998 2.2444 0.4454
9.7510004 2.2437 0.43579999
9.7440004 2.1658001 0.48030001
9.7558002 2.2448001 0.4483
9.7586002 2.1349001 0.47130001
9.7382002 2.1914001 0.47690001
9.7377005 2.1961999 0.47530001
9.7418003 2.2313001 0.45109999
9.7571001 2.128 0.4589
9.7665005 2.1224 0.45860001
9.7388 2.2144001 0.4677
9.7663002 2.1212001 0.45550001
9.7486 2.2419 0.4341
9.7467003 2.1568 0.4788
9.7323999 2.2168 0.4517
9.7811003 2.1122999 0.4393
9.7474003 2.1584001 0.4804
9.7854004 2.112 0.4427
9.7354002 2.2063999 0.46779999
9.7379999 2.1865001 0.47710001
9.7483997 2.1545999 0.47920001
9.7530003 2.2390001 0.45789999
9.7391996 2.1714001 0.47670001
9.7411003 2.2260001 0.45910001
9.7706003 2.1159999 0.4436
9.7503996 2.1494 0.47760001
9.7354002 2.2088001 0.46630001
9.7545004 2.1380999 0.4711
9.7532997 2.2456 0.4325
9.7489996 2.1826999 0.4883
9.7466002 2.2388 0.44350001
9.7379999 2.1765001 0.47639999
9.7442999 2.1494999 0.47080001
9.7783003 2.1127999 0.4235
9.7417002 2.1993999 0.47929999
9.7543001 2.2458 0.43880001
9.7484999 2.2419 0.43259999
9.7434998 2.2255001 0.46399999
9.7535 2.1433001 0.47549999
9.7333002 2.2024 0.4664
9.7381001 2.1698 0.47479999
9.7335997 2.2 0.46799999
9.7418003 2.2079 0.47600001
9.7382002 2.1853001 0.4774
9.7505999 2.2435999 0.43270001
9.7777004 2.1127 0.42660001
9.7439003 2.1826999 0.48370001
9.7396002 2.2207 0.46309999
9.7844 2.1238 0.472
9.7353001 2.221 0.4535
9.7781 2.1127999 0.43759999
9.7407999 2.1819999 0.4804
9.7369003 2.1696 0.47310001
9.7365999 2.1996 0.47279999
9.7776003 2.1127 0.43450001
9.7558002 2.2460999 0.41839999
9.783 2.1115 0.4271
9.7517004 2.1688001 0.4883
9.7733002 2.1152999 0.44499999
9.7369003 2.1910999 0.47530001
9.7554998 2.1276 0.45570001
9.7445002 2.1522 0.47330001
9.7389002 2.2319 0.4368
9.7377005 2.1975 0.47499999
9.7294998 2.2028 0.45840001
9.7581997 2.2402 0.46290001
9.7334003 2.2060001 0.4646
9.7466002 2.1443999 0.4689
9.7468996 2.2337 0.4576
9.7454996 2.1661 0.48199999
9.7838001 2.1262 0.4752
9.7620001 2.1250999 0.4594
9.7368002 2.1761999 0.47479999
9.7489996 2.2420001 0.4373
9.7414999 2.1585 0.47389999
9.7360001 2.2128 0.46439999
9.7854004 2.1228001 0.47080001
9.7467003 2.2376001 0.44819999
9.7460003 2.1552999 0.4772
9.7605 2.1235001 0.45359999
9.7859001 2.1157 0.4569
9.7412004 2.1933999 0.48019999
9.7328997 2.2156 0.4549
9.7672997 2.1201 0.45390001
9.7606001 2.1313 0.46849999
9.7433004 2.1478 0.46790001
9.7395 2.2012999 0.4761
9.7636995 2.1217999 0.45379999
9.7778997 2.1127 0.43610001
9.7409 2.2016001 0.4777
9.7553997 2.2383001 0.46270001
9.7545004 2.2458 0.4215
9.7468004 2.2388 0.41710001
9.7368002 2.2214 0.4567
9.7559996 2.1343 0.46799999
9.7561998 2.1278 0.45730001
9.7612 2.1236999 0.45519999
9.7406998 2.221 0.46470001
9.7594004 2.131 0.46689999
9.7551003 2.2446001 0.414
9.7665005 2.1199 0.45230001
9.7540998 2.142 0.47490001
9.7325001 2.1801 0.46900001
9.7532997 2.2456 0.4278
9.7364998 2.2031 0.47130001
9.7483997 2.2405 0.44330001
9.7419996 2.1810999 0.4817
9.7425003 2.2019999 0.47940001
9.7700005 2.1159 0.442
9.7560997 2.1303 0.46200001
9.7439003 2.1589999 0.47710001
9.7749996 2.1133001 0.4312
9.743 2.2228 0.4664
9.7580004 2.2481 0.4217
9.7420998 2.2339001 0.44510001
9.7799997 2.1120999 0.4267
9.7377005 2.2291 0.44330001
9.7566996 2.2478001 0.42640001
9.7584 2.1206 0.43309999
9.7416 2.1958001 0.48019999
9.7461004 2.1608 0.4804
9.7547998 2.1341 0.4664
9.7494001 2.2420001 0.42160001
9.7454996 2.1621001 0.4804
9.7514 2.1454999 0.47549999
9.7560997 2.1410999 0.47589999
9.7587004 2.1322999 0.46810001
9.7414999 2.1638999 0.47679999
9.7551003 2.2434001 0.45140001
9.7552996 2.1315999 0.4632
9.7587004 2.1375 0.4745
9.7458 2.1689999 0.4833
9.7426996 2.1451001 0.4641
9.7609997 2.1249001 0.4578
9.7726002 2.1141 0.428
9.7496996 2.1682999 0.48660001
9.7842999 2.1118 0.42089999
9.7814999 2.1148 0.45199999
9.7433004 2.2265999 0.46239999
9.7332001 2.1988001 0.46790001
9.7563 2.2477 0.42950001
9.7446003 2.1605 0.47870001
9.7709999 2.1161001 0.4452
9.7454004 2.2385001 0.4217
9.7433004 2.1602001 0.47710001
9.7539997 2.1285999 0.45559999
9.7421999 2.1901 0.48179999
9.7392998 2.2135 0.4693
9.7580996 2.2288001 0.47729999
9.7598 2.1338999 0.47130001
9.7426996 2.2341001 0.44670001
9.7774 2.1126001 0.43130001
9.7507 2.1480999 0.477
9.7505999 2.2435999 0.43430001
9.7292995 2.2123001 0.44839999
9.7406998 2.1870999 0.4804
9.7818003 2.1768999 0.35800001
9.7775002 2.1126001 0.43290001
9.7392998 2.1905 0.47850001
9.7392998 2.1868 0.4788
9.743 2.2328 0.45109999
9.7686005 2.118 0.4492
9.7376003 2.2142 0.46610001
9.7454996 2.1442001 0.4673
9.7805004 2.1122 0.42359999
9.743 2.2354 0.44330001
9.7595997 2.1234 0.45199999
9.7461996 2.24 0.4321
9.7420998 2.1475 0.4659
9.7385998 2.2121 0.4693
9.7598 2.1352 0.4729
9.7405005 2.2284 0.45410001
9.7433004 2.1749001 0.48230001
9.7749004 2.1133001 0.4296
9.7411003 2.1406 0.45449999
9.7347002 2.1756999 0.4718
9.7486 2.2419 0.4357
9.7542 2.1394 0.47240001
9.7482996 2.1530001 0.47819999
9.7397003 2.2282 0.45249999
9.7847004 2.1142001 0.45210001
9.7551003 2.1301 0.46039999
9.7601004 2.1247001 0.4562
9.7514 2.1414001 0.4716
9.7735004 2.1143 0.4217
9.7357998 2.2077999 0.46779999
9.7371998 2.2276001 0.4461
9.7358999 2.2053001 0.46939999
9.7573004 2.1266999 0.4567
9.7566996 2.2478001 0.43579999
9.7356997 2.1921999 0.4736
9.7462997 2.2400999 0.42899999
9.7294998 2.1859 0.4639
9.7567997 2.2464001 0.4452
9.7818003 2.1125 0.4425
9.7395 2.1688001 0.47639999
9.7442999 2.1537001 0.4743
9.7848997 2.1119001 0.41929999
9.7620001 2.1226001 0.45370001
9.7517004 2.2362001 0.46129999
9.7484999 2.2393 0.4483
9.7357998 2.1760001 0.47350001
9.7480001 2.2391 0.414
9.7532997 2.1284001 0.454
9.7496996 2.2072999 0.48449999
9.7482004 2.2418001 0.43099999
9.7458 2.2065001 0.48120001
9.7862997 2.1135001 0.4506
9.7537003 2.1447001 0.47710001
9.7411003 2.2337 0.44190001
9.7475996 2.2390001 0.44670001
9.7361002 2.2225001 0.4535
9.7587996 2.1257 0.4567
9.7328997 2.2131 0.458
9.7404003 2.1807001 0.47999999
9.7406998 2.2161 0.46939999
9.7483997 2.2418001 0.42629999
9.7419004 2.1626999 0.47679999
9.7445002 2.1440001 0.4657
9.7341995 2.2084999 0.4646
9.7567997 2.2478001 0.42480001
9.7545004 2.1366 0.46950001
9.7330999 2.2193 0.45019999
9.7881002 2.1113 0.44119999
9.7302999 2.1860001 0.4655
9.7411003 2.1796999 0.48069999
9.7349005 2.2125001 0.4628
9.7463999 2.1513 0.47499999
9.7405996 2.1845 0.4804
9.7798004 2.112 0.433
9.7348003 2.2098999 0.46470001
9.7343998 2.2234001 0.4463
9.7452002 2.1593001 0.4788
9.7426004 2.2130001 0.47420001
9.7538996 2.2456999 0.42309999
9.7493 2.1478 0.4754
9.7505999 2.2435999 0.42640001
9.7363005 2.2090001 0.46790001
9.7622004 2.119 0.43979999
9.7735996 2.1143 0.44029999
9.7825003 2.1113999 0.4303
9.7392998 2.2109001 0.47119999
9.7692003 2.1170001 0.44639999
9.7826996 2.115 0.45359999
9.7314997 2.2056 0.46129999
9.7445002 2.2383001 0.42640001
9.7584 2.1206 0.43470001
9.7777004 2.1127 0.42500001
9.7495003 2.2407999 0.41530001
9.7756996 2.1135001 0.4391
9.7684002 2.1191001 0.45269999
9.7372999 2.1949 0.47530001
9.7490997 2.1408999 0.4684
9.7412996 2.2286 0.45570001
9.7490997 2.2420001 0.43889999
9.7438002 2.2369001 0.44049999
9.7572002 2.1254001 0.4535
9.7426996 2.1682999 0.47999999
9.7461996 2.24 0.4337
9.7320995 2.2093 0.4598
9.7337999 2.2097001 0.463
9.7419996 2.1599 0.47549999
9.7826004 2.1113999 0.4287
9.7270002 2.2045 0.4501
9.7391005 2.1767001 0.47799999
9.7383003 2.2316999 0.43200001
9.7376003 2.2033999 0.4729
9.7412996 2.2349999 0.43529999
9.7412996 2.2189 0.46790001
9.7325001 2.2191 0.44859999
9.7628002 2.1215999 0.4522
9.7561998 2.2477 0.43259999
9.7693996 2.1157999 0.4404
9.7409 2.2028 0.4774
9.7796001 2.112 0.4298
9.7350998 2.1745 0.47220001
9.7378998 2.1902001 0.47690001
9.7763004 2.1136 0.42030001
9.7537003 2.1338 0.4648
9.7789001 2.1129 0.42039999
9.7339001 2.1768 0.4709
9.7398996 2.2334001 0.43560001
9.7409 2.2323 0.4463
9.7561998 2.1317999 0.4648
9.7358999 2.2176001 0.4598
9.7468004 2.1378 0.461
9.7725 2.1140001 0.43110001
9.7440996 2.1686001 0.48159999
9.7516003 2.1389 0.4691
9.7557001 2.1264 0.4535
9.7750998 2.1133001 0.42649999
9.7445002 2.155 0.47549999
9.7754002 2.1134 0.4375
9.7368002 2.2177999 0.4614
9.7824001 2.1113999 0.43180001
9.7384996 2.1752 0.477
9.7519999 2.2439001 0.4201
9.7349997 2.2186 0.45660001
9.7528 2.1391001 0.4707
9.7853003 2.1192 0.4648
9.7487001 2.1449001 0.47220001
9.7834997 2.1731999 0.3581
9.7546997 2.1287 0.45719999
9.7441998 2.2381999 0.43239999
9.743 2.2179999 0.4711
9.7656002 2.1185 0.4463
9.7529001 2.2455001 0.42930001
9.7571001 2.2386 0.39700001
9.7475996 2.1515999 0.47659999
9.7431002 2.1722 0.48159999
9.7396002 2.2307999 0.44620001
9.7361002 2.1982 0.47279999
9.7356997 2.1693001 0.47150001
9.7395 2.2320001 0.44150001
9.7313995 2.1798999 0.4673
9.7377996 2.2181001 0.463
9.7854996 2.112 0.41780001
9.7431002 2.1630001 0.47839999
9.7398005 2.2147 0.4693
9.7427998 2.1735001 0.48159999
9.7574997 2.2465 0.44690001
9.7747002 2.1133001 0.43279999
9.7410002 2.2349 0.43220001
9.7433004 2.1547 0.47389999
9.7375002 2.2251999 0.45269999
9.7327995 2.2169001 0.4533
9.7771997 2.1126001 0.42820001
9.7376003 2.1877 0.47679999
9.7358999 2.2237 0.45100001
9.7796001 2.112 0.42829999
9.7507 2.2435999 0.42480001
9.7396002 2.2295001 0.4497
9.7320995 2.207 0.46169999
9.7757998 2.1135001 0.42179999
9.7419996 2.1835999 0.48199999
9.7636995 2.1192999 0.44589999
9.7389002 2.2319 0.4384
9.7315998 2.2165999 0.4501
9.7444 2.2356999 0.4138
9.7459002 2.204 0.4824
9.7518997 2.1429999 0.47389999
9.743 2.1533999 0.47260001
9.7383003 2.2316999 0.43360001
9.7805996 2.1133001 0.41569999
9.7755003 2.1134 0.42340001
9.7446003 2.2344999 0.4515
9.7858 2.1108 0.43169999
9.7793999 2.112 0.4314
9.7828999 2.1744001 0.35800001
9.7580996 2.1206 0.43149999
9.7439003 2.1617 0.47870001
9.7487001 2.2393 0.41240001
9.7412996 2.168 0.47839999
9.7455997 2.1470001 0.47049999
9.7582998 2.1336 0.46970001
9.7358999 2.2163 0.46129999
9.7540998 2.1299 0.45879999
9.743 2.1492 0.4691
9.7411003 2.2272999 0.4576
9.7406998 2.2309999 0.44940001
9.7812004 2.1122999 0.4409
9.7309999 2.2042 0.46129999
9.7476997 2.1679001 0.4849
9.7489996 2.1505001 0.47729999
9.7690001 2.1157 0.43880001
9.7376003 2.1998 0.47440001
9.7730999 2.1142001 0.43869999
9.7341995 2.2195001 0.45339999
9.7433996 2.1777 0.48300001
9.7593002 2.2392001 0.46610001
9.7347002 2.2049999 0.46779999
9.7426004 2.1614001 0.47710001
9.7417002 2.1970999 0.48019999
9.7591 2.1245 0.45449999
9.7468996 2.2402 0.42269999
9.7807999 2.1122 0.42199999
9.7372999 2.1617 0.47029999
9.7341995 2.2111001 0.4628
9.7315998 2.171 0.46540001
9.7333002 2.1803 0.47060001
9.7574997 2.2426 0.4578
9.7558002 2.1331 0.4664
9.7419004 2.2262001 0.46079999
9.7369003 2.2054999 0.47099999
9.7361002 2.2286999 0.426
9.7417002 2.2351 0.4228
9.7417002 2.2212 0.4664
9.7467003 2.1542001 0.47749999
9.7424002 2.1654 0.47870001
9.7538004 2.1326001 0.4632
9.7468004 2.1664 0.48359999
9.7512999 2.2437 0.4217
9.7565002 2.2449 0.45030001
9.7426996 2.2302001 0.45609999
9.7301998 2.204 0.45969999
9.7723999 2.1140001 0.43270001
9.7859001 2.1143999 0.45370001
9.7349005 2.2197001 0.45500001
9.7558002 2.2448001 0.41240001
9.7737999 2.1143 0.42019999
9.7363997 2.1887 0.4752
9.7445002 2.1468 0.4689
9.7572002 2.2479 0.43900001
9.7314997 2.2079 0.4598
9.7865 2.1110001 0.42379999
9.7876997 2.1125 0.44780001
9.7783003 2.1879001 0.3583
9.7319002 2.1949 0.46720001
9.7573996 2.2439001 0.45469999
9.7405996 2.1691 0.47799999
9.7547998 2.1328001 0.4648
9.7334995 2.2012 0.4677
9.7346001 2.1932001 0.472
9.7858 2.1108 0.4285
9.7501001 2.1410999 0.47
9.7325001 2.1724999 0.46759999
9.7364998 2.1861 0.47549999
9.7404003 2.177 0.4797
9.7379999 2.2083001 0.4711
9.7314997 2.2189 0.4454
9.7573004 2.132 0.46650001
9.7382002 2.1684999 0.47479999
9.7586002 2.2467999 0.44850001
9.7861996 2.1108999 0.42539999
9.7627001 2.1227 0.4553
9.7327995 2.2218001 0.44400001
9.7551003 2.2381001 0.3985
9.7322998 2.2081001 0.4614
9.7475004 2.1445999 0.47060001
9.7714996 2.1149001 0.4402
9.7354002 2.1908 0.4736
9.7610998 2.1224 0.45210001
9.7419004 2.1531 0.47099999
9.743 2.2341001 0.4483
9.7577 2.2479999 0.44060001
9.7475004 2.138 0.46259999
9.7501001 2.2421999 0.41850001
9.7748003 2.1145 0.41710001
9.7613001 2.1187999 0.43349999
9.7399998 2.2075 0.4743
9.7470999 2.1847 0.48699999
9.7256002 2.1898999 0.45429999
9.7426004 2.1761999 0.48199999
9.7473001 2.1433001 0.46900001
9.7410002 2.2349 0.42750001
9.7677002 2.1178 0.44760001
9.7341003 2.1882 0.472
9.7377005 2.1839001 0.47710001
9.7304001 2.2017 0.46160001
9.7546997 2.2368 0.3969
9.7335997 2.2047999 0.46610001
9.7418003 2.1503 0.46849999
9.7357998 2.2286 0.43059999
9.7382002 2.2305 0.44150001
9.7542 2.2432001 0.41080001
9.7518997 2.1280999 0.4508
9.7884998 2.1127 0.44909999
9.7358999 2.1773 0.47409999
9.7425003 2.2365999 0.4323
9.7504997 2.1427 0.47220001
9.7602997 2.1199 0.43979999
9.7635002 2.1229 0.4569
9.7798004 2.1895001 0.35800001
9.7441998 2.2279999 0.46239999
9.7442999 2.1577001 0.47710001
9.7673998 2.1189001 0.45109999
9.7389002 2.1803999 0.47839999
9.7378998 2.2132001 0.4677
9.7501001 2.1289999 0.4492
9.7447996 2.2384 0.4233
9.7779999 2.1866 0.3583
9.7811003 2.1122999 0.42039999
9.7528 2.1324 0.46160001
9.7517996 2.1401999 0.47099999
9.7702999 2.1147001 0.42910001
9.7676001 2.1166 0.44159999
9.7348003 2.2258 0.44159999
9.7538996 2.2444 0.41549999
9.7511997 2.1292 0.45230001
9.7686996 2.1156001 0.4373
9.7517996 2.1375 0.46779999
9.7679996 2.1166999 0.44319999
9.7578001 2.1255 0.4551
9.7416 2.2351 0.43849999
9.7501001 2.2409 0.41339999
9.7517996 2.1308 0.4571
9.7532997 2.2456 0.42460001
9.7524996 2.1282001 0.4524
9.7559004 2.2476001 0.42789999
9.7685003 2.1168001 0.44479999
9.7341003 2.2221 0.44870001
9.7563 2.1264999 0.4551
9.7622995 2.119 0.4411
9.7728004 2.1141 0.43740001
9.7568998 2.1333001 0.46799999
9.7340002 2.1989999 0.46950001
9.7386999 2.1673999 0.47510001
9.7575998 2.1242001 0.4513
9.7475004 2.1501999 0.4756
9.7334003 2.2242999 0.42269999
9.7434998 2.1436999 0.4641
9.7339001 2.1742001 0.47049999
9.7622995 2.1203001 0.4474
9.7454004 2.1524 0.47490001
9.7424002 2.1587 0.47549999
9.7530003 2.2363999 0.39840001
9.7285004 2.2133999 0.44369999
9.7512999 2.128 0.4492
9.7641001 2.1194 0.44749999
9.7503996 2.1386001 0.4675
9.7749004 2.1133001 0.4359
9.7538004 2.1271999 0.4524
9.7456999 2.2360001 0.41069999
9.7364998 2.2262001 0.4479
9.7419996 2.2326 0.44949999
9.7445002 2.2358 0.4481
9.7441998 2.2383001 0.428
9.7412996 2.2323999 0.4479
9.7522001 2.2439001 0.41859999
9.7559996 2.2462001 0.41690001
9.7587004 2.1231999 0.45039999
9.7315998 2.1722 0.46599999
9.7741003 2.1143999 0.41859999
9.7505999 2.1291001 0.4508
9.7425003 2.1463001 0.46560001
9.7375002 2.2302999 0.43830001
9.7413998 2.2323999 0.41330001
9.7402 2.1703 0.47799999
9.7483997 2.2365999 0.4061
9.7367001 2.2019 0.4725
9.7629995 2.1192 0.4443
9.7671003 2.1177001 0.4463
9.7413998 2.2224 0.4648
9.7312002 2.1810999 0.4673
9.7666998 2.1187 0.44949999
9.7419004 2.1489999 0.4675
9.7431002 2.2367001 0.42289999
9.7652998 2.1197 0.45070001
9.7346001 2.2246001 0.4447
9.7517004 2.1294 0.45390001
9.7412996 2.1419001 0.45770001
9.7530003 2.1377001 0.46950001
9.7405005 2.2335999 0.44029999
9.7286997 2.2035999 0.45649999
9.7336998 2.2256 0.4321
9.7370005 2.1775 0.47569999
9.7509003 2.2437 0.42320001
9.7524004 2.1336 0.46309999
9.7524996 2.1415999 0.47330001
9.7383003 2.223 0.45840001
9.7377005 2.171 0.47510001
9.7406998 2.2248001 0.46070001
9.7501001 2.1356001 0.463
9.7417002 2.23 0.45449999
9.7342997 2.2207999 0.45190001
9.7329998 2.1891 0.47029999
9.7798996 2.112 0.4251
9.7448997 2.2358 0.4122
9.7363005 2.1719999 0.47350001
9.7293997 2.2161 0.44220001
9.7603998 2.1222 0.45050001
9.7433996 2.1465001 0.46720001
9.7474003 2.2377 0.41080001
9.7360001 2.1747 0.4738
9.7363005 2.2286999 0.43849999
9.7396002 2.2334001 0.43399999
9.7749996 2.1133001 0.4249
9.7382002 2.2316999 0.42730001
9.7447996 2.2384 0.43869999
9.7365999 2.2288001 0.44010001
9.7521 2.1443 0.47549999
9.7442999 2.237 0.4434
9.783 2.1756999 0.35769999
9.7412996 2.2337999 0.44350001
9.7402 2.2321999 0.4447
9.7646999 2.1194999 0.44909999
9.7517996 2.1322 0.45989999
9.7427998 2.2046001 0.47909999
9.7510996 2.1357999 0.46470001
9.7405996 2.1417999 0.45609999
9.7390003 2.1816001 0.47870001
9.7856998 2.1108 0.4269
9.7872 2.1147001 0.45539999
9.7277002 2.1998 0.45640001
9.7327003 2.2093999 0.4614
9.7333002 2.217 0.4549
9.7400999 2.1716001 0.47830001
9.7530003 2.1403999 0.47260001
9.7285004 2.2147 0.44060001
9.7298002 2.2003 0.4612
9.7307997 2.2151999 0.4501
9.7688999 2.1169 0.41530001
9.7449999 2.1564 0.4772
9.7617998 2.1214001 0.45050001
9.7406998 2.1501 0.4668
9.7395 2.1593001 0.47220001
9.7425003 2.2365999 0.43419999
9.7463999 2.2400999 0.42429999
9.7347002 2.1977999 0.4711
9.7412996 2.2237 0.4632
9.7655001 2.1173999 0.44119999
9.7565002 2.2372 0.46630001
9.7441998 2.237 0.41850001
9.7272997 2.2023001 0.45359999
9.7700996 2.1171999 0.4122
9.7390003 2.1633999 0.4738
9.7321997 2.2179999 0.45019999
9.7728996 2.1141 0.4233
9.7414999 2.1719 0.47999999
9.7530003 2.2428999 0.41229999
9.7329998 2.2230999 0.44150001
9.7384005 2.1987 0.47600001
9.7482996 2.1435001 0.47060001
9.7327995 2.1963999 0.46849999
9.7563 2.1252 0.45190001
9.7547998 2.1262 0.45179999
9.7256002 2.2042 0.4454
9.7594995 2.1197 0.43349999
9.7796001 2.1131001 0.4172
9.7371998 2.2214 0.45829999
9.7818003 2.1161001 0.4048
9.724 2.1882 0.44949999
9.7370996 2.224 0.4542
9.7374001 2.1722 0.47510001
9.7397003 2.2256999 0.45750001
9.7374001 2.2191999 0.4614
9.7550001 2.2433 0.40920001
9.7624998 2.1191001 0.4427
9.7323999 2.1926999 0.46880001
9.7594004 2.1197 0.43189999
9.7784004 2.1127999 0.44080001
9.7671003 2.1164999 0.44
9.7769003 2.1125 0.42969999
9.7458 2.1375999 0.4594
9.7268 2.1712 0.45480001
9.7311001 2.1849 0.46740001
9.7299995 2.1944001 0.46399999
9.7370996 2.1749001 0.4754
9.7458 2.2386 0.41859999
9.7687998 2.1156001 0.42309999
9.7549 2.2420001 0.4061
9.7788 2.1842 0.35800001
9.7326002 2.2204001 0.44710001
9.7566004 2.2449999 0.4109
9.7805996 2.1157999 0.40630001
9.7690001 2.1157 0.42160001
9.7381001 2.1789999 0.4774
9.7858 2.1120999 0.41620001
9.7397003 2.2321 0.44310001
9.7400999 2.2335 0.43869999
9.7828999 2.1138 0.4111
9.7389002 2.1605999 0.47220001
9.7821999 2.1125 0.41729999
9.7334003 2.1930001 0.47040001
9.7867002 2.1159 0.4585
9.7507 2.1372001 0.46619999
9.7581997 2.1206 0.43619999
9.7353001 2.1884999 0.47389999
9.7399998 2.1608 0.4738
9.7812996 2.1124001 0.41890001
9.7514 2.2386 0.40459999
9.7420998 2.1408 0.45770001
9.7643995 2.1171 0.4289
9.7385998 2.2035999 0.4745
9.7883997 2.1113 0.44279999
9.7496996 2.1370001 0.4646
9.7539997 2.1313 0.46160001
9.7398005 2.1675999 0.47670001
9.7612 2.1187999 0.4348
9.7320995 2.1812999 0.46900001
9.7354002 2.1705 0.4718
9.7412004 2.1610999 0.47549999
9.7708998 2.1148 0.4386
9.7424002 2.1787 0.48230001
9.7873001 2.1136 0.4522
9.7365999 2.2128999 0.46599999
9.7543001 2.1259999 0.45030001
9.7778997 2.1127 0.43920001
9.7519999 2.2375 0.40149999
9.7495003 2.1317 0.4551
9.7278004 2.2119 0.44369999
9.7428999 2.1668 0.47999999
9.7586002 2.1206999 0.43939999
9.7321997 2.1672001 0.46509999
9.7644997 2.1171 0.42739999
9.7474003 2.2402999 0.41960001
9.7561998 2.2358 0.3935
9.7364998 2.1708 0.47350001
9.7363997 2.1733 0.47409999
9.7493 2.2420001 0.41999999
9.7477999 2.2404001 0.41839999
9.7336998 2.2121999 0.4612
9.7330999 2.2035999 0.46610001
9.7603998 2.1199 0.44100001
9.7384005 2.1591001 0.47060001
9.7461004 2.1429999 0.4673
9.7683001 2.1155 0.4262
9.7369003 2.2153001 0.46450001
9.7357998 2.1945 0.47369999
9.7377005 2.1889999 0.47710001
9.7440004 2.2381999 0.4339
9.7398996 2.2309 0.44780001
9.7382002 2.1777999 0.4774
9.7820997 2.1149001 0.40790001
9.7528 2.2441001 0.417
9.7442999 2.1671 0.48159999
9.7867002 2.1110001 0.42219999
9.7370005 2.2302001 0.43509999
9.7501001 2.2395999 0.4093
9.7377005 2.2304001 0.43990001
9.7325001 2.1938 0.46880001
9.7483997 2.1394 0.46610001
9.7853003 2.1106999 0.43009999
9.7372999 2.2228 0.4567
9.7479 2.1366 0.4614
9.7521 2.1348 0.46470001
9.7301998 2.1833999 0.46579999
9.7433004 2.1839001 0.48359999
9.7452002 2.1538999 0.47589999
9.7358999 2.1559 0.46419999
9.7311001 2.2177 0.447
9.7388 2.217 0.46619999
9.7648001 2.1183 0.4447
9.7763996 2.1136 0.41870001
9.7313995 2.1925001 0.46720001
9.7505999 2.1440001 0.4738
9.7399998 2.2296 0.4513
9.7784004 2.1152999 0.4093
9.7530003 2.1363001 0.46790001
9.7796001 2.1905999 0.35800001
9.7416 2.1773 0.4813
9.7482004 2.2418001 0.42469999
9.7790003 2.1129 0.4188
9.7428999 2.1573999 0.47549999
9.7493 2.1382999 0.4659
9.7316999 2.1696999 0.46540001
9.7417002 2.1572001 0.47389999
9.7501001 2.2383001 0.40619999
9.7349005 2.1968999 0.4718
9.7343998 2.1664 0.4686
9.7360001 2.1958001 0.47369999
9.7334995 2.178 0.4709
9.7375002 2.1736 0.47569999
9.7475996 2.2416 0.4294
9.7424002 2.224 0.4648
9.7746 2.1156001 0.412
9.7402 2.1661999 0.47670001
9.7376003 2.2290001 0.44490001
9.7502003 2.1317999 0.4567
9.7297001 2.2088001 0.45500001
9.7320004 2.1900001 0.46869999
9.7781 2.1176 0.40310001
9.7509003 2.132 0.45829999
9.7470999 2.1364 0.4598
9.7565002 2.1214001 0.433
9.7490997 2.1354001 0.4614
9.7347002 2.227 0.42590001
9.7336998 2.1554 0.4594
9.7839003 2.1140001 0.40959999
9.7341003 2.1905 0.472
9.7414999 2.1461 0.46399999
9.7482996 2.1666999 0.4853
9.7580996 2.1243 0.45289999
9.7721996 2.1140001 0.42640001
9.7363005 2.1835999 0.47549999
9.7363997 2.2275 0.4445
9.7402 2.1831999 0.48030001
9.7594995 2.1197 0.435
9.7293997 2.2038 0.45840001
9.7646999 2.1171999 0.4242
9.7378998 2.2155001 0.46610001
9.7642002 2.1206999 0.45249999
9.724 2.1895001 0.44949999
9.7343998 2.1554999 0.461
9.7573996 2.1215999 0.4409
9.7531004 2.135 0.46630001
9.7510996 2.1345999 0.46309999
9.7524996 2.2414999 0.4091
9.7268 2.2093999 0.4436
9.7502003 2.1305001 0.45390001
9.7370996 2.2302001 0.43669999
9.7369003 2.2263 0.44949999
9.7388 2.1840999 0.47870001
9.7397003 2.1954 0.4786
9.7487001 2.1368001 0.463
9.7407999 2.1651001 0.477
9.7474003 2.1392 0.46450001
9.7375002 2.1547999 0.46610001
9.7349005 2.2147999 0.46129999
9.7835999 2.1127999 0.41429999
9.7358999 2.2272999 0.4429
9.7341003 2.1805 0.47220001
9.7793999 2.1155 0.40779999
9.7340002 2.2244 0.44310001
9.7798996 2.1143999 0.41100001
9.7615995 2.1201999 0.4461
9.7350998 2.1557 0.46259999
9.7344999 2.1782 0.4725
9.7658997 2.1185 0.4479
9.7870998 2.1111 0.42070001
9.7339001 2.2061 0.46619999
9.7279997 2.2096 0.44870001
9.7502003 2.1343999 0.46149999
9.7405996 2.2348001 0.43059999
9.7532997 2.2377999 0.40000001
9.7609997 2.1201 0.44420001
9.7348003 2.165 0.4686
9.7433004 2.2328999 0.45269999
9.7509003 2.1306 0.45550001
9.7728996 2.1164999 0.41069999
9.7325001 2.1698999 0.46700001
9.7664003 2.1164 0.42429999
9.7294998 2.2135999 0.44839999
9.7434998 2.2342999 0.4499
9.7477999 2.1338999 0.45660001
9.7607002 2.1199999 0.4429
9.7888002 2.1104 0.42550001
9.7790003 2.1142001 0.41249999
9.7313995 2.2104001 0.45789999
9.7663002 2.1175001 0.44440001
9.7795 2.1919 0.3581
9.7337999 2.1457 0.44389999
9.7507 2.1278 0.44760001
9.7587996 2.2495999 0.4296
9.7392998 2.2333 0.43239999
9.7283001 2.2061 0.45370001
9.7309999 2.2067001 0.4601
9.7347002 2.2174001 0.45809999
9.7771997 2.1150999 0.4109
9.7378998 2.2253001 0.45429999
9.7559004 2.2293999 0.38620001
9.7313004 2.1670001 0.46340001
9.7482004 2.1314001 0.45190001
9.7304001 2.1923001 0.4655
9.7425003 2.2353001 0.4181
9.7405005 2.1858001 0.48069999
9.7420998 2.1394 0.45550001
9.7315998 2.2214999 0.43920001
9.7530003 2.1310999 0.46000001
9.7694998 2.1170001 0.41339999
9.7514 2.1333001 0.46149999
9.7625999 2.1204 0.449
9.7337999 2.2025001 0.46799999
9.7707005 2.1148 0.42289999
9.7320004 2.2118001 0.458
9.7465 2.1526999 0.47659999
9.7332001 2.1726 0.46919999
9.7482004 2.1380999 0.46419999
9.7353001 2.1846001 0.47420001
9.7311001 2.2214 0.43450001
9.7386999 2.2255001 0.45590001
9.7397003 2.2334001 0.43709999
9.7582998 2.1206 0.43779999
9.7596998 2.1198001 0.43790001
9.7522001 2.1308999 0.45840001
9.7346001 2.1691 0.4702
9.7743998 2.1131999 0.43430001
9.7320995 2.1997001 0.46630001
9.7397003 2.1989999 0.4777
9.7393999 2.1781001 0.479
9.7354002 2.21 0.46630001
9.7339001 2.2172 0.45649999
9.7455997 2.2399001 0.4305
9.7529001 2.1271 0.4508
9.7728996 2.1733999 0.36050001
9.7334995 2.1688001 0.46830001
9.7845001 2.1129999 0.4127
9.7749004 2.1145999 0.41549999
9.7632999 2.1205001 0.4506
9.7763996 2.1149001 0.41240001
9.7398996 2.1580999 0.47220001
9.7340002 2.2146001 0.45969999
9.7434998 2.2355001 0.41499999
9.7609997 2.1187 0.43189999
9.7881002 2.1103001 0.42860001
9.7522001 2.1294999 0.45550001
9.7342997 2.1703 0.4702
9.7386999 2.2306001 0.44459999
9.7353001 2.2247 0.4479
9.7519999 2.2335999 0.39520001
9.7395 2.1754999 0.47870001
9.7334995 2.1975999 0.46950001
9.7494001 2.1396 0.46779999
9.7571001 2.1215 0.4393
9.7376003 2.2009001 0.47440001
9.7321997 2.1710999 0.46700001
9.7335997 2.2242999 0.44150001
9.7463999 2.2375 0.41229999
9.7434998 2.1561 0.47549999
9.7389002 2.2218001 0.46149999
9.7615004 2.1187999 0.43790001
9.757 2.2451 0.4515
9.7518997 2.1359999 0.46630001
9.7308998 2.1982 0.46470001
9.7792997 2.1178999 0.40149999
9.7809 2.1145999 0.40939999
9.7382002 2.1951001 0.47690001
9.7367001 2.2288001 0.44170001
9.7742996 2.1921 0.35949999
9.7587996 2.2495999 0.42840001
9.7296 2.2051001 0.45809999
9.7297001 2.1931 0.46399999
9.7475996 2.1313 0.45030001
9.7599001 2.1210001 0.44569999
9.7302999 2.1991999 0.46309999
9.7666998 2.1164 0.42269999
9.7390003 2.1700001 0.47670001
9.7888002 2.1104 0.43650001
9.7300997 2.1847 0.46579999
9.7323999 2.2045 0.46450001
9.7412004 2.1556001 0.47229999
9.7320995 2.1789 0.4689
9.7489996 2.2381001 0.4077
9.7768002 2.1136999 0.41710001
9.7323999 2.1551001 0.4562
9.7812996 2.1196001 0.3969
9.7612 2.2244999 0.37779999
9.7413998 2.1447999 0.46239999
9.7542 2.2458 0.4199
9.7579002 2.1229999 0.4488
9.7437 2.2381001 0.42919999
9.7579002 2.2414 0.40020001
9.7389002 2.2049 0.4745
9.7306004 2.1719999 0.46439999
9.7334995 2.2255001 0.4337
9.7818003 2.1135001 0.41260001
9.7609997 2.1212001 0.44890001
9.7877998 2.1112001 0.41909999
9.7475996 2.1406 0.46669999
9.7522001 2.1243 0.43439999
9.7386999 2.1738 0.4774
9.7333002 2.1754 0.4702
9.7458 2.2399001 0.4258
9.7890997 2.1105001 0.43810001
9.7384005 2.1724999 0.47670001
9.7319002 2.1684999 0.46540001
9.7349997 2.1717 0.4718
9.7680998 2.1155 0.4357
9.7350998 2.1542001 0.46129999
9.7294998 2.2184 0.42649999
9.7349997 2.2223001 0.45190001
9.7329998 2.1552 0.4578
9.7610998 2.1187 0.42719999
9.7484999 2.1340001 0.45820001
9.7264996 2.1949 0.456
9.7407999 2.1758001 0.48030001
9.7563 2.2477 0.42320001
9.7305002 2.2030001 0.46160001
9.7683001 2.1155 0.42469999
9.7329998 2.1645999 0.46540001
9.7806997 2.1182001 0.40000001
9.7268 2.1673 0.4526
9.7279997 2.2035 0.45519999
9.7531996 2.2326 0.3924
9.7463999 2.2349 0.40599999
9.7608995 2.1187 0.43040001
9.7319002 2.1826 0.46900001
9.7700996 2.1145999 0.4276
9.7334003 2.1661999 0.46700001
9.7349997 2.2270999 0.42269999
9.7412996 2.1744001 0.4806
9.7356997 2.2286 0.43540001
9.7294998 2.1921 0.4639
9.7807999 2.1133001 0.41420001
9.7299995 2.2184999 0.42179999
9.7587004 2.2483001 0.4438
9.7699003 2.1145999 0.4307
9.7341003 2.1728001 0.47080001
9.7612 2.1187999 0.43669999
9.7363997 2.2079 0.46939999
9.7573004 2.2465 0.4138
9.7554998 2.125 0.45030001
9.7509003 2.2423999 0.4154
9.7395 2.1429 0.456
9.7307997 2.1695001 0.46380001
9.7544003 2.1248 0.44710001
9.7382002 2.2305 0.44299999
9.7367001 2.2300999 0.43380001
9.7888002 2.1113999 0.44440001
9.7285995 2.2012999 0.45829999
9.7658005 2.1173999 0.44310001
9.7834997 2.1719 0.35800001
9.7294998 2.1782999 0.4641
9.7360001 2.2138 0.46450001
9.7491999 2.1342001 0.4598
9.7679996 2.1154001 0.4278
9.7325001 2.1765001 0.46919999
9.7431002 2.2058001 0.47920001
9.7309999 2.2139001 0.45320001
9.7587996 2.1219001 0.41460001
9.7643995 2.1171 0.4258
9.7549 2.1249001 0.44870001
9.7398996 2.1375999 0.44530001
9.783 2.1163001 0.4032
9.7774 2.1138 0.4156
9.7358999 2.2066 0.46939999
9.7311001 2.1837001 0.4677
9.7409 2.1473 0.4646
9.7299995 2.198 0.46309999
9.7779999 2.1140001 0.414
9.7311001 2.1993999 0.46470001
9.7388 2.2267001 0.45429999
9.7381001 2.2265999 0.45269999
9.7392998 2.1942999 0.47850001
9.7304001 2.2076001 0.45820001
9.7405996 2.1445999 0.46079999
9.7536001 2.234 0.3937
9.7853003 2.1131999 0.41119999
9.7426996 2.1355 0.44859999
9.7327003 2.1738999 0.4689
9.7354002 2.1933999 0.4736
9.7861996 2.1122 0.4147
9.7529001 2.1296 0.4571
9.7292995 2.2123001 0.44999999
9.7881002 2.1103001 0.42699999
9.7862997 2.1145 0.40650001
9.7707005 2.1159999 0.41530001
9.7645998 2.1171999 0.43799999
9.7327003 2.2119999 0.4596
9.7803001 2.1791999 0.35769999
9.7765999 2.1173 0.40459999
9.7384996 2.2 0.47600001
9.7441998 2.2383001 0.43709999
9.7318001 2.1737001 0.4673
9.7454004 2.2172 0.3863
9.7329998 2.1791 0.47049999
9.7377996 2.2316 0.4289
9.7308998 2.1824 0.4673
9.7337999 2.1647999 0.46700001
9.7594995 2.1197 0.4366
9.7454004 2.1345999 0.45339999
9.7367001 2.1682 0.47310001
9.7721996 2.1140001 0.42480001
9.7298002 2.2174001 0.44220001
9.7702999 2.1147001 0.43700001
9.7300997 2.1809001 0.4657
9.7475996 2.1324999 0.4535
9.7779999 2.1707001 0.3594
9.7463999 2.1336 0.45339999
9.7377005 2.1603 0.47060001
9.7306995 2.2163999 0.44850001
9.7426996 2.2365999 0.4386
9.7578001 2.2481 0.44220001
9.7398996 2.1471 0.46270001
9.7362003 2.2189 0.4598
9.7491999 2.1436999 0.47220001
9.7493 2.1287999 0.44749999
9.7363997 2.2249999 0.45109999
9.7709999 2.1148 0.42129999
9.7589998 2.1208 0.44260001
9.7587004 2.1206999 0.44100001
9.7417002 2.1515999 0.47
9.7660999 2.1163001 0.4258
9.7459002 2.1334 0.45179999
9.7289 2.1965001 0.4614
9.7370005 2.2068 0.47099999
9.7751999 2.1157 0.41049999
9.7365999 2.2300999 0.43200001
9.7705002 2.1184001 0.40720001
9.7329998 2.1712999 0.4686
9.7466002 2.2388 0.41549999
9.7587996 2.2495999 0.42680001
9.7735004 2.1154001 0.4136
9.7398996 2.1740999 0.479
9.7447996 2.1345 0.45179999
9.7347002 2.2270999 0.4366
9.7312002 2.2005999 0.46439999
9.7382002 2.2316999 0.4242
9.7663002 2.1163001 0.43689999
9.7489004 2.1287 0.44600001
9.7327995 2.2082 0.463
9.7445002 2.2370999 0.41659999
9.7701998 2.1145999 0.43540001
9.7412996 2.1664 0.47830001
9.7881002 2.1103001 0.43489999
9.7312002 2.2117 0.45640001
9.7823 2.1185 0.3985
9.7294998 2.2162001 0.4438
9.7713003 2.1149001 0.41980001
9.7481003 2.1352 0.4598
9.7316999 2.1877 0.46869999
9.7421999 2.2365 0.42629999
9.7697001 2.1896999 0.3608
9.7664003 2.1164 0.4384
9.7659998 2.1247001 0.3976
9.7587996 2.2289 0.3831
9.7234001 2.1858001 0.44819999
9.7671003 2.125 0.39610001
9.7795 2.1192 0.39840001
9.7523003 2.1269 0.4492
9.7729998 2.1152 0.41510001
9.7501001 2.2421999 0.41690001
9.7461004 2.2361 0.4091
9.7575998 2.1215999 0.4425
9.7347002 2.2246001 0.4463
9.7847996 2.1142001 0.40799999
9.7452002 2.2320001 0.40279999
9.7378998 2.2291 0.4465
9.7299004 2.1873 0.4655
9.7396002 2.1498001 0.46520001
9.7308998 2.2019 0.4632
9.7795 2.1816001 0.35769999
9.7322998 2.1777 0.46919999
9.7361002 2.2237999 0.4526
9.7586002 2.2495999 0.43279999
9.7327995 2.2204001 0.44870001
9.7385998 2.2318001 0.43990001
9.7363005 2.2042999 0.47130001
9.7349005 2.1833 0.4738
9.7792997 2.1166 0.40439999
9.7734003 2.1191001 0.40259999
9.7405005 2.2348001 0.4337
9.7469997 2.1336999 0.45500001
9.7223997 2.1963 0.43599999
9.7442999 2.2319 0.4043
9.7699003 2.1145999 0.43380001
9.7364998 2.1545999 0.46450001
9.7278996 2.2119 0.4452
9.7330999 2.2182 0.45339999
9.7552996 2.2316999 0.389
9.7754002 2.1147001 0.41389999
9.7679005 2.1154001 0.4341
9.7320004 2.2228 0.4242
9.7301998 2.2163 0.44690001
9.7466002 2.1403 0.46509999
9.7454996 2.1387999 0.46129999
9.7537003 2.2392001 0.4016
9.7716999 2.115 0.41819999
9.7888002 2.1104 0.42390001
9.7309999 2.1910999 0.46709999
9.7339001 2.1715 0.4702
9.7572002 2.2451 0.4093
9.7448997 2.2372 0.4154
9.7608004 2.1187 0.42879999
9.7333002 2.194 0.47040001
9.7482004 2.1326001 0.4551
9.7413998 2.2249999 0.4623
9.7426004 2.1394999 0.4571
9.7356997 2.2248001 0.44949999
9.7347002 2.187 0.47350001
9.7558002 2.2370999 0.39539999
9.7350998 2.1730001 0.4725
9.7241001 2.1719999 0.4465
9.7593002 2.234 0.38789999
9.7714005 2.1185999 0.40560001
9.7371998 2.1670001 0.4734
9.7531004 2.2402999 0.40470001
9.7454996 2.2372999 0.4138
9.7882996 2.1113 0.41760001
9.7329998 2.2156999 0.45649999
9.7522001 2.1243 0.43599999
9.7522001 2.2388 0.40310001
9.7558002 2.2476001 0.4373
9.7510004 2.2360001 0.39989999
9.7374001 2.1630001 0.4718
9.7677002 2.1154001 0.4294
9.7229004 2.1987 0.4373
9.7423 2.2275 0.40099999
9.7224998 2.1951001 0.43920001
9.7388 2.1659 0.47510001
9.7241001 2.1705999 0.44530001
9.7700996 2.1145999 0.426
9.7477999 2.2377999 0.40920001
9.7351999 2.1638 0.4689
9.7581997 2.2467 0.4122
9.7587996 2.2483001 0.417
9.7413998 2.2349999 0.42120001
9.7417002 2.1544001 0.47229999
9.7271996 2.1673999 0.4542
9.7270002 2.2093999 0.44549999
9.7282 2.1856 0.46219999
9.7486 2.1315 0.4535
9.7468996 2.1324 0.45190001
9.7272997 2.2095001 0.44670001
9.7421999 2.2263 0.39950001
9.7494001 2.1303 0.45230001
9.7269001 2.1765001 0.458
9.7340002 2.1793001 0.47220001
9.7291002 2.1845 0.4641
9.7503004 2.1398001 0.46939999
9.7397003 2.1512001 0.4668
9.7723999 2.1187999 0.4041
9.7722998 2.1719999 0.3608
9.7466002 2.2249 0.39140001
9.7433996 2.1341 0.447
9.7587996 2.1219001 0.44729999
9.7433004 2.1396 0.4587
9.7643995 2.1171 0.4368
9.7502003 2.2332001 0.39669999
9.7403002 2.1568999 0.47220001
9.7365999 2.2300999 0.4276
9.7358999 2.1873 0.4752
9.7650995 2.1849999 0.36250001
9.7327995 2.1879001 0.47060001
9.7720003 2.1138999 0.4355
9.7313004 2.1935 0.46720001
9.7256002 2.2077999 0.44069999
9.7447996 2.2332001 0.40560001
9.7315998 2.2128 0.45640001
9.7296 2.2028 0.46000001
9.7423 2.234 0.41370001
9.7261 2.1982999 0.4535
9.7421999 2.1435001 0.46239999
9.7304001 2.1933 0.46560001
9.7875004 2.1101999 0.43169999
9.7749004 2.1254001 0.3901
9.7393999 2.2333 0.42460001
9.7397003 2.1415999 0.45449999
9.7298002 2.2137001 0.44999999
9.7448997 2.2384 0.4201
9.7283001 2.188 0.4623
9.7385998 2.1828001 0.47870001
9.7347002 2.2258 0.44310001
9.7649002 2.1171999 0.43990001
9.7877998 2.1101999 0.43329999
9.7383003 2.1564 0.46900001
9.7890997 2.1105001 0.42230001
9.7395 2.1375 0.4438
9.7505999 2.2397001 0.40779999
9.75 2.1277001 0.44600001
9.7395 2.1726999 0.47830001
9.7372999 2.1812 0.477
9.7469997 2.1310999 0.44870001
9.7488003 2.2328999 0.39820001
9.7356997 2.2286 0.43689999
9.7364998 2.1559999 0.46579999
9.7328997 2.223 0.44299999
9.7272997 2.2131 0.43889999
9.7238998 2.1908 0.44949999
9.7666998 2.1164 0.4215
9.7786999 2.1275001 0.38550001
9.7468996 2.2337 0.4025
9.7271004 2.1712 0.45640001
9.7250996 2.2053001 0.419
9.7332001 2.1700001 0.4686
9.7393999 2.1647 0.4754
9.7489996 2.2368 0.40450001
9.7719002 2.1236 0.39469999
9.7565002 2.1240001 0.4497
9.7402 2.1375999 0.44690001
9.7586002 2.2495999 0.43430001
9.7503004 2.1331 0.45989999
9.7323999 2.2241001 0.43200001
9.7346001 2.227 0.42429999
9.7276001 2.1740999 0.45899999
9.7532997 2.2313001 0.39050001
9.7658997 2.1162 0.42739999
9.7386999 2.1496 0.46360001
9.7264996 2.1914001 0.45750001
9.7468996 2.1283 0.42860001
9.7299995 2.2065001 0.45840001
9.7255001 2.2065001 0.41870001
9.7505999 2.2344999 0.398
9.7321997 2.2142 0.45640001
9.7330999 2.2218001 0.44710001
9.7711 2.1161001 0.4138
9.7840996 2.1166 0.40169999
9.7679996 2.1166999 0.4165
9.7694998 2.191 0.36090001
9.7477999 2.1421001 0.46900001
9.7330999 2.2242 0.43990001
9.7311001 2.2200999 0.44229999
9.7343998 2.227 0.435
9.7243996 2.1705999 0.44690001
9.7533998 2.1257999 0.44859999
9.7342997 2.1942 0.472
9.7388 2.2293 0.4122
9.7256002 2.1933999 0.4544
9.7716999 2.1138999 0.43419999
9.7795 2.1803 0.35769999
9.7483997 2.1285999 0.44440001
9.7289 2.1942 0.46239999
9.7589998 2.2497001 0.42519999
9.7561998 2.1213 0.4314
9.7391005 2.1415 0.45289999
9.7467003 2.1296999 0.4427
9.7292004 2.2098999 0.4531
9.7495003 2.2356 0.4014
9.7261 2.1696999 0.4526
9.7732 2.125 0.39160001
9.7309999 2.1479001 0.43380001
9.7361002 2.164 0.47049999
9.7721004 2.1150999 0.41659999
9.7286997 2.2111001 0.44999999
9.7257004 2.1993999 0.45159999
9.7278996 2.165 0.45449999
9.7388 2.1427 0.4544
9.7377996 2.2316 0.43520001
9.7551003 2.2342999 0.39219999
9.7358999 2.2198999 0.45820001
9.7741003 2.118 0.40450001
9.7789001 2.1854999 0.35769999
9.7432003 2.2316 0.40580001
9.7355003 2.1652 0.4702
9.7416 2.142 0.45930001
9.7328997 2.2156 0.405
9.7327003 2.1673 0.4666
9.7489004 2.1422999 0.47060001
9.7768002 2.1161001 0.40740001
9.7733002 2.1166 0.40920001
9.7593002 2.1208 0.44409999
9.7861996 2.1134 0.40959999
9.7391996 2.2244999 0.45899999
9.7383003 2.2242999 0.45739999
9.7348003 2.1858001 0.4738
9.7313004 2.1775 0.46759999
9.7584 2.2495999 0.43149999
9.7320995 2.2228 0.4226
9.7713003 2.1197 0.40279999
9.7236996 2.1846001 0.44980001
9.7639999 2.1180999 0.44310001
9.7406998 2.1431 0.45919999
9.7258997 2.1684 0.45100001
9.7313004 2.2042 0.46290001
9.7323999 2.1659999 0.46540001
9.7594004 2.2498 0.4237
9.7266998 2.1726 0.45609999
9.7371998 2.1506 0.46200001
9.7826996 2.1199 0.39539999
9.7327003 2.1828001 0.47060001
9.7412996 2.1392 0.45390001
9.7348003 2.1795001 0.47350001
9.7334003 2.1952 0.47040001
9.75 2.2409 0.4122
9.7332001 2.2254 0.4289
9.7602997 2.2304001 0.38319999
9.7346001 2.1459 0.44859999
9.7307997 2.1898 0.46709999
9.7316999 2.1838 0.46900001
9.7346001 2.2112 0.46439999
9.7458 2.1308 0.44400001
9.7348003 2.204 0.4693
9.7252998 2.1910999 0.45429999
9.7374001 2.1382999 0.43360001
9.7347002 2.1528001 0.4594
9.7370996 2.1800001 0.47670001
9.7378998 2.1494 0.46200001
9.7355003 2.168 0.47150001
9.7350998 2.2246001 0.41330001
9.7262001 2.2031 0.45039999
9.7390003 2.2332001 0.42770001
9.7543001 2.2406001 0.4032
9.7325001 2.2241001 0.43520001
9.7454004 2.1308 0.44240001
9.7461004 2.1308999 0.44549999
9.7236996 2.1833 0.44980001
9.7720003 2.1176 0.4075
9.7294998 2.2074001 0.45649999
9.7309999 2.1786001 0.4673
9.7327003 2.1902001 0.47029999
9.7405005 2.1782999 0.4806
9.7821999 2.1125 0.41580001
9.7282 2.211 0.44839999
9.7550001 2.2395 0.40009999
9.7398005 2.2321 0.41639999
9.7441998 2.1343 0.45019999
9.7318001 2.1466999 0.43599999
9.7584 2.2402 0.3971
9.7320995 2.1617999 0.46219999
9.7349005 2.1807001 0.4738
9.7341995 2.2269001 0.43340001
9.7307997 2.1735001 0.4657
9.7404003 2.1528001 0.46939999
9.7553997 2.2434001 0.4077
9.7346001 2.1991 0.4711
9.7472 2.1284001 0.43799999
9.7372999 2.1561999 0.46740001
9.7601995 2.1210001 0.44729999
9.7426004 2.2353001 0.4165
9.7733002 2.1238999 0.39320001
9.7250996 2.1884999 0.45429999
9.7591 2.2483001 0.41580001
9.7629004 2.1178999 0.43830001
9.7638998 2.1170001 0.43200001
9.7389002 2.2332001 0.43079999
9.757 2.2479 0.4201
9.7356005 2.1544001 0.46290001
9.7292995 2.1557 0.44819999
9.7334995 2.2255001 0.4368
9.7299995 2.1733 0.4641
9.7532997 2.1231999 0.4323
9.7599001 2.1198001 0.42089999
9.7403002 2.2321999 0.41479999
9.7889996 2.1105001 0.43970001
9.7728996 2.1178 0.40599999
9.7233 2.1868999 0.44819999
9.7306995 2.2212999 0.42969999
9.7618999 2.1830001 0.36399999
9.7290001 2.1882 0.4639
9.7479 2.2339001 0.40099999
9.7347002 2.2270999 0.43810001
9.7566996 2.2437 0.40619999
9.7598 2.1784999 0.36539999
9.7423 2.1558001 0.47420001
9.7228003 2.1963999 0.44080001
9.7538996 2.1406 0.4743
9.7552996 2.1224 0.4393
9.7341995 2.154 0.45969999
9.7447996 2.1427 0.4657
9.7314997 2.1863 0.46869999
9.7571001 2.2348001 0.39070001
9.7507 2.1252999 0.43599999
9.7378998 2.2193 0.463
9.7397003 2.1443999 0.45919999
9.7727003 2.1708 0.3608
9.7826004 2.115 0.4064
9.7592001 2.122 0.44890001
9.7431002 2.2367001 0.41999999
9.7264004 2.2079999 0.4454
9.7349005 2.2270999 0.43970001
9.7427998 2.2367001 0.42160001
9.7407999 2.1730001 0.47999999
9.7252998 2.2028999 0.4472
9.7348003 2.1819999 0.4738
9.7285004 2.1918001 0.4623
9.7335997 2.2256 0.4242
9.7468996 2.1283 0.42699999
9.7497997 2.2279999 0.3906
9.7480001 2.1285 0.44279999
9.7518997 2.1242001 0.43290001
9.7598 2.2392001 0.39399999
9.7497997 2.2219 0.3849
9.7481003 2.2314 0.3969
9.7344999 2.1677001 0.46990001
9.7378998 2.1508 0.46360001
9.7318001 2.2228 0.43669999
9.7588997 2.1196001 0.4303
9.7709999 2.1173999 0.4091
9.7318001 2.1912999 0.46869999
9.7243996 2.2063 0.42809999
9.7363997 2.2300999 0.4307
9.7248001 2.2076001 0.42809999
9.7456999 2.1415999 0.4657
9.7577 2.2274001 0.38240001
9.7463999 2.2400999 0.42109999
9.7327003 2.1815 0.47060001
9.7396002 2.1457 0.46079999
9.7376003 2.2214999 0.45989999
9.743 2.2253001 0.39669999
9.7330999 2.2242 0.42109999
9.7341995 2.2269001 0.42739999
9.7622995 2.119 0.4179
9.7405005 2.1377001 0.44850001
9.7565002 2.2398 0.39860001
9.7353001 2.2175 0.4016
9.7785997 2.1262 0.38710001
9.7269001 2.174 0.45739999
9.7715998 2.1245999 0.39309999
9.7404003 2.1458001 0.46239999
9.7329998 2.2169001 0.40619999
9.7349997 2.2258999 0.4447
9.7770996 2.1199 0.398
9.7322998 2.224 0.43360001
9.7807999 2.1255 0.3872
9.7414999 2.2325001 0.41170001
9.7484999 2.2392001 0.41080001
9.7298002 2.1545 0.44819999
9.7299995 2.1796 0.4657
9.7391005 2.1468999 0.4614
9.7254 2.2018001 0.4488
9.7353001 2.2284999 0.42750001
9.7235003 2.2024 0.42519999
9.7433004 2.2290001 0.40110001
9.7546997 2.1222999 0.43450001
9.7750998 2.1170001 0.4061
9.7846003 2.1203001 0.39390001
9.7371998 2.1824999 0.47710001
9.7351999 2.2272 0.4413
9.7497997 2.2291999 0.3919
9.7875004 2.1101 0.43009999
9.7300997 2.1784 0.4657
9.7637997 2.1170001 0.4305
9.7565002 2.1214001 0.4377
9.7292004 2.1731999 0.46250001
9.7635002 2.118 0.44150001
9.7393999 2.2307 0.41350001
9.7594995 2.2379 0.3924
9.7589998 2.2416 0.3987
9.7438002 2.2381999 0.42480001
9.7557001 2.2460999 0.41530001
9.7700996 2.1145999 0.4244
9.7833004 2.1175001 0.3998
9.743 2.1355 0.45019999
9.7554998 2.2407999 0.40169999
9.7336998 2.1817 0.47220001
9.7257004 2.1947999 0.4544
9.7393999 2.2269001 0.40560001
9.7447004 2.1373 0.4578
9.7566004 2.1227 0.4456
9.7835999 2.1187999 0.39700001
9.7325001 2.1686001 0.46700001
9.7397003 2.2234001 0.46160001
9.7700996 2.1243 0.3946
9.7595997 2.1197 0.42250001
9.7574997 2.1229 0.41299999
9.7784004 2.1693001 0.3594
9.7278004 2.1987 0.45829999
9.7309999 2.2139001 0.4077
9.724 2.2003 0.44400001
9.7873001 2.1147001 0.405
9.7638998 2.1170001 0.43360001
9.7237997 2.1652999 0.43360001
9.7454996 2.1401 0.46349999
9.7290001 2.1954999 0.46239999
9.7261 2.1724 0.45449999
9.7302999 2.1968 0.4646
9.7532997 2.1233001 0.43540001
9.7313004 2.2200999 0.44389999
9.7463999 2.131 0.44710001
9.7363997 2.2300999 0.42879999
9.7572002 2.2321999 0.38749999
9.7665005 2.1176 0.4149
9.7680998 2.1252 0.3946
9.7695999 2.1255 0.39300001
9.7469997 2.2349999 0.40439999
9.7519999 2.2349 0.39649999
9.7272997 2.1938 0.45910001
9.7355003 2.2114 0.46599999
9.7532997 2.1231999 0.4339
9.7455997 2.2270999 0.39489999
9.7341003 2.2269001 0.42899999
9.7692003 2.1182001 0.40869999
9.7392998 2.1526 0.4677
9.7279997 2.194 0.46070001
9.7645998 2.1243999 0.39910001
9.7271996 2.1726999 0.45770001
9.7561998 2.1213 0.4346
9.7398996 2.1403 0.45289999
9.7608004 2.1187 0.42559999
9.7314997 2.1984 0.46630001
9.7414999 2.2337999 0.4152
9.7405005 2.1487 0.4659
9.7417002 2.2363999 0.42910001
9.7263002 2.1972001 0.4551
9.7816 2.1219001 0.39219999
9.7591 2.1219001 0.41299999
9.7470999 2.135 0.45820001
9.7374001 2.1382999 0.43520001
9.7409 2.1378 0.4501
9.7247 2.191 0.45269999
9.7835999 2.1224 0.39070001
9.7280998 2.1742001 0.4605
9.7757998 2.1157999 0.40889999
9.7580996 2.1206 0.42210001
9.7258997 2.2066 0.4454
9.7335997 2.1842 0.47220001
9.7643003 2.1182001 0.41670001
9.7577 2.2388 0.3955
9.7554998 2.2421999 0.40450001
9.7420998 2.2365 0.42469999
9.7496996 2.2305 0.3935
9.7701998 2.1194 0.4043
9.7498999 2.237 0.403
9.7405005 2.1513 0.4684
9.7537003 2.1245999 0.44549999
9.7466002 2.1417999 0.4673
9.7243996 2.1693001 0.44620001
9.7275 2.1975 0.45820001
9.7579002 2.2451999 0.40779999
9.7536001 2.2351999 0.39489999
9.7279997 2.2024 0.4567
9.7653999 2.1184001 0.4136
9.7243004 2.1782999 0.4513
9.7704 2.1171999 0.41029999
9.7273998 2.2046001 0.4533
