# .PCD v0.7 - Point Cloud Data file format
VERSION 0.7
FIELDS x y z
SIZE 4 4 4
TYPE F F F
COUNT 1 1 1
WIDTH 1582
HEIGHT 1
VIEWPOINT 0 0 0 1 0 0 0
POINTS 1582
DATA ascii
9.1261997 2.7163999 -0.95560002
9.1222 2.6953001 -0.94069999
9.1730003 2.6262 -0.92210001
9.1262999 2.6760001 -0.92970002
9.1236 2.7051001 -0.94559997
9.1386003 2.6707001 -0.91769999
9.1226997 2.6907001 -0.93760002
9.1211996 2.6914999 -0.94050002
9.1241999 2.7133 -0.95529997
9.1253004 2.6974001 -0.9368
9.1213999 2.6733 -0.93669999
9.1605997 2.6451001 -0.9127
9.1285 2.6803999 -0.92729998
9.1396999 2.6458001 -0.92470002
9.1190996 2.7095001 -0.98159999
9.158 2.6419001 -0.91540003
9.1463003 2.6570001 -0.91500002
9.1644001 2.631 -0.92030001
9.1276999 2.6824999 -0.9285
9.1243 2.6803999 -0.93260002
9.1436005 2.6482 -0.92030001
9.1661997 2.6403 -0.91339999
9.1803999 2.6099 -0.94270003
9.1219997 2.7046001 -0.94849998
9.1506996 2.6530001 -0.9138
9.1265001 2.7200999 -0.98559999
9.1716995 2.6235001 -0.92500001
9.1590996 2.6408999 -0.91549999
9.1492996 2.6366 -0.9235
9.1402998 2.675 -0.91619998
9.1265001 2.6821001 -0.92989999
9.1295996 2.7224 -0.99080002
9.1237001 2.6947 -0.93779999
9.1267004 2.7012999 -0.93709999
9.1297998 2.6719 -0.92570001
9.1529999 2.6442001 -0.91649997
9.1542997 2.7025001 -1.0367
9.1299 2.6705999 -0.92570001
9.1691999 2.6386001 -0.91360003
9.1386003 2.6535001 -0.92180002
9.1327 2.6663001 -0.92339998
9.1234999 2.7168 -0.96890002
9.1794996 2.6143 -0.93510002
9.1183996 2.7070999 -0.9648
9.1711998 2.6152999 -0.93529999
9.1266003 2.7177 -0.99339998
9.1226997 2.7105999 -0.95480001
9.1352997 2.6578 -0.92309999
9.1329002 2.7183001 -1.0062
9.1484003 2.6378 -0.92320001
9.1360998 2.7205 -1.0081
9.1494999 2.6472001 -0.91689998
9.1293001 2.6963999 -0.93080002
9.1194 2.7074001 -0.96039999
9.1334 2.721 -1.003
9.1189003 2.6788001 -0.9411
9.1587 2.6234 -0.93010002
9.1848001 2.6169 -0.93120003
9.1257 2.7079999 -0.94440001
9.1441002 2.6443 -0.92199999
9.1215 2.6963 -0.9425
9.1338997 2.6905 -0.92360002
9.1470003 2.6347001 -0.92659998
9.1595001 2.6461 -0.91259998
9.1274004 2.6788001 -0.92839998
9.1365004 2.7256 -1.0003999
9.1351004 2.7227001 -1.0032001
9.1701002 2.6162 -0.93430001
9.1155996 2.6814001 -0.94870001
9.1241999 2.7183001 -0.97479999
9.1246996 2.7184 -0.9824
9.1325998 2.7219 -0.99989998
9.1826 2.6083 -0.94590002
9.1348 2.7239001 -1.0005
9.1204004 2.7121 -0.97000003
9.1247997 2.7077 -0.94580001
9.1192999 2.6979001 -0.9483
9.1687002 2.6347001 -0.91619998
9.1241999 2.7183001 -0.9763
9.1728001 2.631 -0.91799998
9.1325998 2.6803999 -0.92290002
9.1198997 2.7086 -0.96079999
9.132 2.7256 -0.98900002
9.1230001 2.7128999 -0.95819998
9.1581001 2.6392 -0.91689998
9.1828003 2.6106 -0.9411
9.1777 2.6206 -0.92699999
9.1367998 2.6765001 -0.91890001
9.1218004 2.7056 -0.94999999
9.125 2.7172 -0.96149999
9.1947002 2.6105001 -1.0074
9.1222 2.6761 -0.93529999
9.1497002 2.6380999 -0.92210001
9.1589003 2.6343999 -0.91979998
9.1189003 2.7083001 -0.96520001
9.1272001 2.6686001 -0.92900002
9.1671 2.6085 -0.95039999
9.1231003 2.6933 -0.93800002
9.1766996 2.6357999 -0.91399997
9.1719999 2.6331999 -0.91649997
9.1204004 2.6756001 -0.9382
9.1236 2.691 -0.93620002
9.1220999 2.7104001 -0.9562
9.1306 2.7251999 -0.98439997
9.1203003 2.7086999 -0.95929998
9.1231003 2.7142 -0.9896
9.1791 2.6152999 -0.93360001
9.1682997 2.6371 -0.91469997
9.1246004 2.7184 -0.96880001
9.1260996 2.6998999 -0.93699998
9.1653004 2.6217 -0.9289
9.1616001 2.6289999 -0.92299998
9.1697998 2.6241 -0.92479998
9.1301003 2.72 -0.99809998
9.1218004 2.7068999 -0.95160002
9.1287003 2.6703 -0.92699999
9.1441002 2.6496 -0.9192
9.1240997 2.6677001 -0.9332
9.1205997 2.7065001 -0.9544
9.1398001 2.6886001 -0.91799998
9.1306 2.6930001 -0.9278
9.1246004 2.6912999 -0.93480003
9.1576996 2.6775 -1.0438
9.1381998 2.7311001 -0.98979998
9.1603003 2.6398001 -0.9156
9.1447001 2.6658001 -0.91390002
9.1414003 2.6623001 -0.91680002
9.1278 2.7205 -0.9903
9.1534996 2.6328001 -0.92379999
9.1219997 2.6918001 -0.93910003
9.1267004 2.7165 -0.9964
9.1640997 2.6296999 -0.92140001
9.1293001 2.6561 -0.93000001
9.1798 2.6110001 -0.94050002
9.1447001 2.6592 -0.91530001
9.1711998 2.6129999 -0.93889999
9.1239004 2.7169001 -0.9659
9.1315002 2.7216001 -0.9982
9.1169004 2.6984 -0.95539999
9.1295004 2.7104001 -0.94029999
9.1391001 2.7314 -0.9914
9.1475 2.6506 -0.91649997
9.1632004 2.6356001 -0.91720003
9.1220999 2.7151 -0.97930002
9.1989002 2.6106999 -0.94440001
9.1711998 2.6222 -0.92640001
9.1185999 2.7082 -0.96670002
9.1317997 2.6874001 -0.92479998
9.1315002 2.6459 -0.93300003
9.1567001 2.6287999 -0.92549998
9.1264 2.6696 -0.92979997
9.1136999 2.6952 -0.9655
9.1736002 2.6229 -0.92510003
9.1584997 2.6329999 -0.921
9.1339998 2.7105 -1.0163
9.1195002 2.7084999 -0.96219999
9.1772003 2.6384001 -0.91229999
9.1780996 2.6127 -0.93769997
9.1260004 2.7188001 -0.9885
9.1897001 2.6103001 -1.0084
9.1243 2.7053001 -0.94419998
9.1240997 2.7182 -0.97320002
9.1190004 2.6835999 -0.94160002
9.1548004 2.6447999 -0.9152
9.1255999 2.7186999 -0.98699999
9.1335001 2.7235 -0.99879998
9.1245003 2.7028999 -0.94169998
9.1278 2.6571 -0.9314
9.1233997 2.7142999 -0.9598
9.1208 2.6961 -0.9436
9.1498003 2.6355 -0.92390001
9.1211004 2.7054 -0.95139998
9.1294003 2.6666 -0.9267
9.1360998 2.6554999 -0.92309999
9.1253004 2.7161 -0.9932
9.1220999 2.6722 -0.93550003
9.1766996 2.6145999 -0.93489999
9.1261997 2.6773 -0.92970002
9.1252003 2.7056 -0.94279999
9.1211996 2.688 -0.93889999
9.1308002 2.6552 -0.92860001
9.1232004 2.6647999 -0.93510002
9.1462002 2.6396999 -0.92330003
9.1336002 2.7221999 -1.0015
9.1352997 2.6722 -0.92019999
9.1625004 2.6127999 -0.94349998
9.1212997 2.7124 -0.96399999
9.1406002 2.6526999 -0.92040002
9.1239004 2.6958001 -0.93790001
9.1206999 2.7088001 -0.95779997
9.1500998 2.6421001 -0.9192
9.1684999 2.6099999 -0.94580001
9.1283998 2.7100999 -0.94169998
9.1324997 2.6766 -0.92269999
9.1489 2.6645 -0.91159999
9.1374998 2.7197001 -1.0112
9.1224003 2.707 -0.9501
9.1548996 2.6370001 -0.91979998
9.1206999 2.7077999 -0.95599997
9.1652002 2.6205001 -0.9303
9.1625996 2.6405001 -0.91430002
9.1292 2.6926 -0.92919999
9.1568003 2.6401999 -0.91680002
9.1377001 2.6637001 -0.91930002
9.1281996 2.717 -0.95120001
9.1260004 2.6796999 -0.93010002
9.1327 2.661 -0.92449999
9.1290998 2.7197001 -0.9964
9.1174002 2.7068 -0.97219998
9.1789999 2.6073 -0.94849998
9.1243 2.684 -0.93300003
9.1198997 2.6981001 -0.94690001
9.1239996 2.6888001 -0.93470001
9.1271 2.7177999 -0.995
9.1285 2.6767001 -0.92690003
9.1752996 2.6269 -0.92089999
9.1219997 2.7126 -0.96109998
9.1176004 2.7068 -0.9813
9.184 2.6029999 -0.9637
9.1540003 2.6607001 -0.90979999
9.1248999 2.6794 -0.93150002
9.1254997 2.6856 -0.93169999
9.1252003 2.7197001 -0.97790003
9.1227999 2.6872001 -0.93599999
9.1826 2.6026001 -0.9666
9.1627998 2.6317999 -0.92009997
9.1374998 2.7209001 -1.0096999
9.1468 2.6638 -0.91289997
9.1342001 2.6654 -0.92199999
9.1726999 2.6135001 -0.9375
9.1310997 2.7142999 -1.0086
9.1279001 2.7181001 -0.99659997
9.125 2.7147999 -0.95539999
9.1279001 2.6921999 -0.93059999
9.1246004 2.7112 -0.95039999
9.1726999 2.6273999 -0.92089999
9.1652002 2.6287 -0.92180002
9.1529999 2.6229999 -0.93409997
9.1264 2.7095001 -0.94450003
9.1407003 2.6608 -0.91759998
9.1307001 2.6696 -0.92479998
9.1457005 2.6501 -0.91780001
9.1611004 2.6276 -0.92439997
9.1693001 2.6228001 -0.92619997
9.1301003 2.6917 -0.9278
9.1323996 2.6714001 -0.92290002
9.1229 2.7165999 -0.97490001
9.1759996 2.6236 -0.92390001
9.1455002 2.6473999 -0.9192
9.1826 2.6129 -0.93690002
9.1803999 2.6031001 -0.96340001
9.1612997 2.6136999 -0.9425
9.1262999 2.6721001 -0.9296
9.1282997 2.674 -0.9271
9.1331997 2.7114999 -1.0145
9.1661997 2.6138999 -0.9393
9.1391001 2.7132001 -1.0197001
9.1606998 2.6312001 -0.92140001
9.1220999 2.6747999 -0.93529999
9.1506004 2.6370001 -0.92220002
9.1267004 2.6919 -0.93199998
9.1183004 2.7070999 -0.98589998
9.1204996 2.7121999 -0.98210001
9.1761999 2.6157 -0.93330002
9.1507998 2.6489999 -0.9152
9.1780996 2.6115999 -0.93949997
9.1202002 2.7005 -0.94819999
9.1229 2.6954999 -0.9393
9.1424999 2.6491001 -0.92049998
9.1285 2.6478 -0.93550003
9.1306 2.7214 -0.99669999
9.1264 2.7189 -0.99010003
9.1357002 2.7191999 -1.0095
9.1248999 2.6561999 -0.9357
9.1323004 2.6726 -0.92290002
9.1192999 2.7084 -0.98790002
9.1794996 2.6415 -1.0402
9.1222 2.6671 -0.93599999
9.1211996 2.6758001 -0.93669999
9.1210003 2.7135999 -0.97280002
9.1212997 2.6831 -0.93730003
9.1302996 2.6643 -0.92610002
9.1337996 2.6573999 -0.92449999
9.1775999 2.6104 -0.9418
9.1231003 2.7084999 -0.95020002
9.1191998 2.6956 -0.9465
9.1243 2.7158 -0.95990002
9.1271 2.6737001 -0.9285
9.1181002 2.7021999 -0.95590001
9.1338997 2.6640999 -0.92250001
9.1400995 2.6684 -0.91659999
9.1476002 2.6466 -0.91820002
9.1211004 2.7089 -0.95639998
9.1447001 2.6552999 -0.91640002
9.1701002 2.6206 -0.92839998
9.1639996 2.6261001 -0.92460001
9.1415997 2.6663001 -0.91579998
9.1331997 2.6877999 -0.92339998
9.1190996 2.7095001 -0.9831
9.1739998 2.6150999 -0.9346
9.1478004 2.6441 -0.91939998
9.1197996 2.711 -0.9684
9.1304998 2.7188001 -1.0014
9.1178999 2.7044001 -0.96020001
9.165 2.6275001 -0.92290002
9.1339998 2.7151999 -1.0118999
9.1408997 2.6461 -0.92330003
9.1548004 2.632 -0.92360002
9.1785002 2.6196001 -0.92790002
9.1323996 2.7147 -1.0102
9.1216002 2.6856999 -0.93739998
9.1429996 2.6336 -0.9307
9.1808996 2.6171 -0.93080002
9.1257 2.7068 -0.9429
9.1464996 2.6372001 -0.92479998
9.1251001 2.7100999 -0.94770002
9.1252003 2.7042999 -0.94150001
9.1984997 2.6106 -1.0063
9.1201 2.7119999 -0.97149998
9.1403999 2.7342999 -0.98259997
9.1427002 2.6652 -0.9152
9.1183996 2.6966 -0.94910002
9.1295004 2.6744001 -0.92570001
9.1184998 2.7070999 -0.96329999
9.1370001 2.6791999 -0.91869998
9.1299 2.6821001 -0.92570001
9.1578999 2.6278999 -0.92559999
9.1826 2.6140001 -0.93510002
9.1253004 2.7172999 -0.95999998
9.125 2.6756999 -0.93110001
9.1204004 2.7121 -0.96850002
9.151 2.6977999 -1.0371
9.1719999 2.6247001 -0.9235
9.1351995 2.6696999 -0.92040002
9.1234999 2.7168 -0.96740001
9.1527004 2.6350999 -0.92229998
9.1547003 2.6396 -0.9181
9.1176004 2.6845 -0.94450003
9.1274004 2.6698999 -0.92839998
9.1162996 2.704 -0.96899998
9.1714001 2.612 -0.9404
9.1346998 2.655 -0.92449999
9.1337004 2.6693001 -0.92180002
9.1673002 2.6356001 -0.91579998
9.1363001 2.6712999 -0.91930002
9.1588001 2.6306 -0.92269999
9.1218996 2.7139001 -0.96530002
9.1192999 2.7107999 -0.97589999
9.1370001 2.6663001 -0.91930002
9.1387997 2.6561999 -0.92040002
9.1817999 2.6024001 -0.96799999
9.1667004 2.6210001 -0.92900002
9.1288996 2.7102001 -1.0096999
9.1569996 2.6350999 -0.92000002
9.1793003 2.6061001 -0.9515
9.1423998 2.6438 -0.92339998
9.1289997 2.6866 -0.92750001
9.1230001 2.7072001 -0.94870001
9.1392002 2.6642001 -0.91790003
9.1589003 2.6434 -0.91399997
9.1317997 2.6673 -0.92390001
9.1190004 2.7083001 -0.9637
9.1408005 2.6647 -0.91659999
9.1485004 2.6391001 -0.92199999
9.1287003 2.6828001 -0.9271
9.1503 2.6501999 -0.9149
9.1651001 2.6180999 -0.93330002
9.1281996 2.6888001 -0.92900002
9.1494999 2.6342001 -0.92500001
9.1585999 2.6380999 -0.91720003
9.1745005 2.6254001 -0.92229998
9.1669998 2.6222 -0.92750001
9.1471004 2.6285 -0.93220001
9.1695004 2.6170001 -0.93309999
9.1328001 2.7195001 -1.0046999
9.1231003 2.6724999 -0.93379998
9.1714001 2.6176 -0.93169999
9.1295996 2.7138 -1.0069
9.1633997 2.6210999 -0.93019998
9.1562996 2.6361001 -0.91960001
9.1191998 2.7047999 -0.9558
9.1590004 2.6356001 -0.91869998
9.1726999 2.6203001 -0.92799997
9.1422005 2.6612999 -0.9163
9.1359997 2.6684999 -0.91979998
9.1182003 2.7079999 -0.96810001
9.1569996 2.6229 -0.9314
9.1300001 2.6831999 -0.92570001
9.1253996 2.7091999 -0.94590002
9.1196003 2.6886001 -0.9418
9.1175003 2.7042999 -0.96160001
9.1184998 2.6775 -0.94139999
9.1243 2.6852 -0.93309999
9.1234999 2.6861999 -0.93449998
9.1246996 2.7184 -0.98390001
9.1246996 2.6984999 -0.93800002
9.1892996 2.608 -1.0038
9.1403999 2.6763 -0.91589999
9.1437998 2.7241001 -1.0132
9.1724005 2.6191001 -0.92949998
9.1507998 2.6283 -0.92949998
9.1175003 2.7068 -0.96920002
9.1759005 2.6178 -0.93040001
9.1300001 2.6654 -0.92610002
9.1299 2.6844001 -0.926
9.1224003 2.714 -0.96270001
9.1535997 2.6406 -0.91799998
9.1192999 2.6777 -0.93989998
9.1344004 2.687 -0.92199999
9.1212997 2.6984999 -0.94400001
9.1539001 2.638 -0.91949999
9.1162996 2.7028999 -0.98559999
9.1359997 2.6594 -0.9217
9.1184998 2.6673 -0.94230002
9.1239996 2.6740999 -0.93239999
9.1317997 2.7205 -1.0013
9.184 2.6178999 -0.9296
9.1211004 2.7079 -0.95450002
9.1202002 2.7121 -0.98049998
9.1192999 2.7107999 -0.97280002
9.1552 2.6296 -0.92540002
9.1693001 2.6125 -0.94019997
9.1680002 2.6120999 -0.94150001
9.1318998 2.6700001 -0.92339998
9.1223001 2.7126999 -0.95959997
9.1344004 2.635 -0.93870002
9.1304998 2.6882999 -0.92619997
9.1745005 2.6219001 -0.92580003
9.1379004 2.6586001 -0.92030001
9.1688995 2.609 -0.94760001
9.1812 2.6159 -0.93229997
9.1431999 2.6508 -0.91909999
9.1552 2.6345 -0.92129999
9.1208 2.7121999 -0.98509997
9.1779003 2.6217 -0.92549998
9.1211004 2.7135999 -0.9698
9.1660004 2.6161001 -0.9357
9.1746998 2.6163001 -0.93260002
9.125 2.6575 -0.93480003
9.1364002 2.6582 -0.9217
9.1281004 2.7205999 -0.99180001
9.1575003 2.6266 -0.92699999
9.1234999 2.7130001 -0.99449998
9.1655998 2.6241 -0.92589998
9.1449003 2.6486001 -0.91890001
9.1208 2.7135 -0.97579998
9.1484003 2.6496 -0.91619998
9.1700001 2.6363001 -0.91460001
9.1225004 2.6944001 -0.93919998
9.1337004 2.6717 -0.92150003
9.1241999 2.7098 -0.94910002
9.1238003 2.7168 -0.98559999
9.1237001 2.7144001 -0.95829999
9.1307001 2.7202001 -0.99959999
9.1296997 2.6905 -0.92769998
9.1225004 2.7047999 -0.94700003
9.1209002 2.7100999 -0.95910001
9.1211004 2.6745 -0.93669999
9.1281004 2.6689 -0.92760003
9.1155996 2.6945 -0.9551
9.1351004 2.7177999 -1.0106
9.1323004 2.6689 -0.92309999
9.1300001 2.6856999 -0.92610002
9.1231003 2.7154 -0.98699999
9.1202002 2.6767001 -0.9382
9.1780996 2.6163001 -0.93199998
9.1178999 2.7079 -0.98019999
9.1559 2.6261001 -0.92839998
9.1428003 2.6413 -0.92460001
9.1781998 2.6092999 -0.94370002
9.1218996 2.6998999 -0.94379997
9.1215 2.6903999 -0.93900001
9.1387997 2.7189 -1.0140001
9.1257 2.7162001 -0.99479997
9.1677999 2.6199999 -0.92970002
9.1229 2.7047999 -1.0044
9.1384001 2.6507001 -0.92290002
9.1197004 2.7097001 -0.96350002
9.1555004 2.6410999 -0.91670001
9.1554003 2.6793001 -1.043
9.1718998 2.6145 -0.93589997
9.1211004 2.7123001 -0.9867
9.1597996 2.6424 -0.91409999
9.1703997 2.6479001 -1.0421
9.1604996 2.6349001 -0.91850001
9.1229 2.6763 -0.9339
9.1771002 2.6227 -0.92449999
9.1341 2.6561999 -0.92449999
9.1344004 2.6681001 -0.92119998
9.1723003 2.6111 -0.94160002
9.1386995 2.7140999 -1.0187
9.1671 2.6096001 -0.94709998
9.1725998 2.6157 -0.9339
9.1355 2.7109001 -1.018
9.1844997 2.6031001 -0.9623
9.1444998 2.6392 -0.92470002
9.1324997 2.6570001 -0.92580003
9.1204004 2.7098999 -0.96060002
9.1700001 2.6140001 -0.93730003
9.1218004 2.7149999 -0.97170001
9.1746998 2.6129 -0.93769997
9.1176996 2.7033 -0.95859998
9.1352997 2.7165 -1.0124
9.1231003 2.6712 -0.93379998
9.1365995 2.6647999 -0.91979998
9.1744003 2.6105001 -0.94209999
9.1829004 2.6096001 -0.94260001
9.1231003 2.6609001 -0.93620002
9.1391001 2.7214 -1.0114
9.1174002 2.7054999 -0.98580003
9.1253996 2.6914999 -0.93339998
9.1128998 2.6891 -0.96069998
9.1227999 2.7165999 -0.97790003
9.1611996 2.6101999 -0.94989997
9.1255999 2.7174001 -0.99180001
9.1441002 2.6457 -0.92089999
9.1251001 2.7197001 -0.97939998
9.1195002 2.7074001 -0.95889997
9.1154003 2.7026999 -0.9734
9.1456003 2.6700001 -0.91259998
9.1220999 2.7151 -0.96869999
9.1299 2.6629 -0.9267
9.1129999 2.6949999 -0.96969998
9.1362 2.6887 -0.92070001
9.1756001 2.6187999 -0.92909998
9.1159 2.7038 -0.972
9.1274996 2.7155001 -1.0007
9.1816998 2.6057999 -0.95179999
9.1322002 2.6777999 -0.9228
9.1225004 2.7117 -0.99400002
9.1310997 2.6633 -0.9253
9.1240997 2.7169001 -0.98710001
9.1901999 2.6117001 -1.0113
9.1499996 2.6306 -0.92769998
9.1379004 2.6612 -0.91949999
9.1355 2.6379001 -0.93430001
9.1253004 2.7198 -0.98100001
9.1202002 2.6947 -0.94349998
9.1202002 2.7051001 -0.95289999
9.1344995 2.7118001 -1.0161
9.1398001 2.6510999 -0.92150003
9.1183996 2.7093 -0.97390002
9.1792002 2.6176 -0.93010002
9.1768999 2.6333001 -0.91540003
9.1780005 2.6185 -0.92909998
9.1288996 2.7170999 -1.0012
9.1183996 2.7058001 -0.96020001
9.1470003 2.6271999 -0.93360001
9.1198997 2.7119999 -0.97289997
9.1424999 2.6235001 -0.94340003
9.1450996 2.6645999 -0.91360003
9.1428003 2.652 -0.9188
9.1190996 2.6861 -0.94169998
9.1204004 2.6691 -0.93830001
9.1189003 2.7095001 -0.96789998
9.1803999 2.6122 -0.93790001
9.1351995 2.6670001 -0.9206
9.1515999 2.6452 -0.91640002
9.1275997 2.6861999 -0.9289
9.1217003 2.7149999 -0.97320002
9.1212997 2.6842999 -0.93730003
9.1697998 2.6115 -0.94169998
9.1206999 2.7077999 -0.99519998
9.1807003 2.6020999 -0.9709
9.1239004 2.6826 -0.93300003
9.1190004 2.7025001 -0.95300001
9.1728001 2.6124001 -0.93900001
9.1232004 2.6582 -0.93709999
9.1257 2.6881001 -0.93180001
9.1802998 2.6076 -0.94709998
9.1615 2.6242001 -0.92739999
9.1204996 2.7121999 -0.96700001
9.1309004 2.6684999 -0.92449999
9.1331997 2.6703999 -0.92199999
9.1292 2.7184 -0.99970001
9.1222 2.7104001 -0.99550003
9.1653004 2.6252999 -0.92470002
9.1457996 2.6623001 -0.91360003
9.1261997 2.7176001 -0.95709997
9.1194 2.7107999 -0.9698
9.1181002 2.6998 -0.95249999
9.1664 2.6117001 -0.9429
9.1557999 2.6385 -0.9181
9.1782999 2.6289999 -0.91850001
9.1364002 2.7124 -1.0178
9.1679001 2.6087 -0.94870001
9.1150999 2.6675999 -0.94980001
9.1627998 2.6268001 -0.9242
9.1424999 2.6600001 -0.9163
9.1756001 2.6098001 -0.94309998
9.1750002 2.6208999 -0.9267
9.1199999 2.6779001 -0.93849999
9.1251001 2.6817 -0.93120003
9.1131001 2.6938 -0.98500001
9.1258001 2.6733 -0.92989999
9.1233997 2.7167001 -0.98400003
9.1136999 2.6975 -0.98070002
9.1248999 2.6781001 -0.93110001
9.1364002 2.6540999 -0.92309999
9.1318998 2.7168 -1.0072
9.1520996 2.6373999 -0.92079997
9.1609001 2.6263001 -0.92549998
9.1640997 2.6110001 -0.94569999
9.1563997 2.6273999 -0.9267
9.1795998 2.6131999 -0.93629998
9.1223001 2.7126999 -0.99129999
9.1310997 2.6593001 -0.92640001
9.1142998 2.6942 -0.95950001
9.1171999 2.6819 -0.94440001
9.1648998 2.609 -0.94989997
9.1702003 2.6185 -0.9307
9.1227999 2.7128 -0.99290001
9.1223001 2.7151999 -0.96719998
9.1802998 2.6041999 -0.95730001
9.1197004 2.7109001 -0.98320001
9.1185999 2.7035999 -0.99489999
9.1311998 2.7109001 -1.0127
9.1763 2.6031001 -0.96420002
9.1515999 2.6249001 -0.9325
9.1164999 2.7053001 -0.97210002
9.1272001 2.6724 -0.92820001
9.1308002 2.7130001 -1.01
9.1824999 2.6026001 -0.96509999
9.1129999 2.6925001 -0.96390003
9.1258001 2.6656001 -0.93089998
9.1497002 2.6447001 -0.91769999
9.1213999 2.7125001 -0.96249998
9.1162996 2.704 -0.96749997
9.1464005 2.6489999 -0.91759998
9.1744003 2.6025 -0.97759998
9.1206999 2.7135 -0.97430003
9.1629 2.6094999 -0.9501
9.1215 2.6940999 -0.94059998
9.1182003 2.6894 -0.9447
9.1237001 2.6610999 -0.93510002
9.1809998 2.6192999 -0.9278
9.1717997 2.6212001 -0.92699999
9.1731005 2.6180999 -0.93040001
9.1199999 2.6912 -0.94190001
9.1352997 2.7155001 -1.0136
9.1618996 2.6092999 -0.9515
9.1211004 2.7135999 -0.98189998
9.1468 2.6478 -0.91790003
9.1283998 2.7158 -1.0023
9.1231003 2.7165999 -0.98250002
9.1118002 2.6887 -0.9666
9.1771002 2.6262 -0.921
9.1230001 2.6810999 -0.93400002
9.1120005 2.6888001 -0.96520001
9.1731005 2.6069 -0.95069999
9.1192999 2.7096 -0.96499997
9.1824999 2.6036999 -0.95899999
9.1757002 2.6029 -0.9659
9.1427002 2.6626 -0.91549999
9.1615 2.6206 -0.93150002
9.1282997 2.7182 -0.99809998
9.1190996 2.7072999 -0.99049997
9.1204004 2.7121 -0.98360002
9.1638002 2.6098001 -0.94859999
9.1372995 2.6598001 -0.92030001
9.1323004 2.6596 -0.92500001
9.1356001 2.7144001 -1.0151
9.1239996 2.7132001 -0.99599999
9.1204004 2.7040999 -0.99959999
9.1176996 2.7079 -0.97860003
9.1529999 2.6252 -0.93110001
9.1309004 2.6735001 -0.92400002
9.1344995 2.7128999 -1.0152
9.1232996 2.7026 -0.94309998
9.1515999 2.6335001 -0.92400002
9.1208 2.7135 -0.97130001
9.1489 2.6429999 -0.91909999
9.1282997 2.7135 -1.0053
9.1285 2.6984 -0.93229997
9.1757002 2.6076 -0.9479
9.1837997 2.6085999 -0.94450003
9.1261997 2.6846001 -0.93019998
9.1854 2.6022 -0.9684
9.1422005 2.6398001 -0.926
9.1646996 2.6147001 -0.93830001
9.1728001 2.6043 -0.95990002
9.1325998 2.665 -0.92330003
9.1318998 2.6619999 -0.92470002
9.1426001 2.6452 -0.92220002
9.1302996 2.6668999 -0.9253
9.1181002 2.7045 -0.9587
9.1138 2.6710999 -0.95249999
9.1717997 2.6052001 -0.95679998
9.1709003 2.6038001 -0.96429998
9.1921997 2.6075001 -1.0022
9.1309996 2.7177999 -1.0044
9.1244001 2.717 -0.98860002
9.1665001 2.6173999 -0.93339998
9.1155005 2.6839001 -0.94880003
9.1209002 2.6949 -0.94209999
9.1322002 2.7133999 -1.0117
9.1213999 2.7090001 -0.95490003
9.1264 2.7082 -1.0079
9.1266003 2.707 -1.0094
9.1785002 2.6243 -0.92259997
9.1176004 2.7079 -0.9756
9.1335001 2.7160001 -1.0107
9.1774998 2.6056001 -0.95289999
9.1313 2.7191 -1.003
9.1772003 2.6022 -0.97210002
9.1646996 2.6101 -0.9472
9.1154003 2.6873 -0.95039999
9.1204996 2.6854 -0.93879998
9.1243 2.7133 -0.95380002
9.1814003 2.6034 -0.96039999
9.1752005 2.605 -0.95569998
9.1195002 2.7109001 -0.98189998
9.1218996 2.7139001 -0.9641
9.1183004 2.7093 -0.97539997
9.1744003 2.6071999 -0.94929999
9.1771002 2.6066999 -0.94980001
9.1658001 2.6104 -0.94580001
9.1232996 2.7096 -0.95060003
9.1408997 2.6394 -0.92739999
9.1752996 2.612 -0.93889999
9.1239004 2.6702001 -0.93260002
9.1176004 2.7079 -0.97409999
9.1176004 2.7056 -0.96319997
9.1307001 2.7151999 -1.0074
9.1192999 2.7107999 -0.98040003
9.1294003 2.6547999 -0.93000001
9.1744003 2.6197 -0.92809999
9.1147003 2.6931 -0.95649999
9.1227999 2.6775 -0.9339
9.1218996 2.7116001 -0.99250001
9.1311998 2.6605999 -0.92580003
9.1677999 2.6155 -0.93559998
9.1139002 2.6963 -0.96439999
9.1190996 2.7107999 -0.97430003
9.1328001 2.6558001 -0.92580003
9.1457996 2.6280999 -0.93349999
9.1226997 2.7165 -0.97939998
9.1358995 2.6631999 -0.9206
9.1410999 2.7219999 -1.0132
9.1336002 2.7184999 -1.0078
9.1161003 2.697 -0.95550001
9.1204996 2.6901 -0.9404
9.1702003 2.6092999 -0.94590002
9.1532001 2.6340001 -0.92259997
9.1780996 2.6312001 -0.91670001
9.1759996 2.6041999 -0.95840001
9.1598997 2.625 -0.92720002
9.1225996 2.7153001 -0.98540002
9.1283998 2.6492 -0.93430001
9.1563997 2.6336999 -0.92110002
9.1658001 2.6194 -0.93099999
9.1259003 2.6894 -0.93180001
9.1377001 2.6545 -0.9217
9.1337996 2.7139001 -1.0134
9.1293001 2.7125001 -1.0082999
9.132 2.7156 -1.0089999
9.1187 2.6967001 -0.9479
9.1209002 2.7135999 -0.98030001
9.1223001 2.658 -0.93849999
9.1223001 2.7035 -0.94580001
9.1525002 2.6389999 -0.91939998
9.1201 2.6924 -0.94220001
9.1223001 2.7151999 -0.98390001
9.1402998 2.7040999 -1.0274
9.1224003 2.7023001 -0.94450003
9.1569996 2.6157 -0.94150001
9.1524 2.6415 -0.91790003
9.1567001 2.6300001 -0.92400002
9.1227999 2.6823001 -0.93440002
9.1231003 2.7142 -0.99110001
9.1386995 2.7025001 -1.0269001
9.1211004 2.6719 -0.93660003
9.1458998 2.6356001 -0.92619997
9.1217003 2.7125001 -0.98970002
9.1183004 2.7093 -0.97689998
9.1695004 2.6046 -0.96109998
9.1654997 2.6127 -0.94129997
9.1766005 2.6043999 -0.95730001
9.1302004 2.7093 -1.0129
9.1155005 2.7026999 -0.98100001
9.1184998 2.7093999 -0.98000002
9.1164999 2.6993999 -0.9569
9.1346998 2.6895001 -0.92210001
9.1582003 2.6245 -0.92860001
9.1764002 2.6134 -0.93629998
9.177 2.608 -0.9465
9.1833 2.6073 -0.94739997
9.1227999 2.7165 -0.98089999
9.1230001 2.7012999 -0.9425
9.1198997 2.7098 -0.96200001
9.1252003 2.7100999 -1.0036
9.1258001 2.7056999 -1.0093
9.1801996 2.6019001 -0.97539997
9.1189003 2.6896 -0.94319999
9.1534004 2.6429999 -0.91649997
9.1212997 2.7124 -0.98820001
9.1264 2.6644001 -0.9303
9.1218996 2.6987 -0.94260001
9.1184998 2.7046001 -0.95719999
9.1587 2.6712 -1.0444
9.1499004 2.6789999 -1.0405999
9.1534004 2.6291001 -0.9267
9.1308002 2.6709001 -0.9242
9.1416998 2.6571 -0.91759998
9.118 2.7033999 -0.95709997
9.1616001 2.6148 -0.93980002
9.1255999 2.7149 -0.9975
9.1396999 2.6443999 -0.92500001
9.1368999 2.717 -1.0141
9.1798 2.6403999 -1.0398999
9.1225996 2.7093999 -0.95200002
9.1218996 2.6735001 -0.93519998
9.1489 2.6961 -1.0368
9.1373997 2.7149 -1.0168
9.1205997 2.7121999 -0.9655
9.1229 2.7035999 -1.0059
9.1536999 2.6303999 -0.9253
9.1217003 2.7021 -0.94569999
9.1632996 2.6235001 -0.92720002
9.1374998 2.6270001 -0.94450003
9.1159 2.7039001 -0.97049999
9.1451998 2.6342001 -0.92790002
9.1594 2.6154001 -0.94019997
9.1355 2.7074001 -1.0209
9.1801996 2.6054001 -0.95279998
9.1348 2.6733 -0.92019999
9.1160002 2.6912 -0.9508
9.1260004 2.6551001 -0.93419999
9.1176004 2.7079 -0.97259998
9.1190996 2.7107 -0.97890002
9.1590004 2.6118 -0.94760001
9.1757002 2.6063001 -0.95120001
9.1239004 2.6714001 -0.93239999
9.1183004 2.6965001 -1.0019
9.1616001 2.6229999 -0.9285
9.1176004 2.6974001 -0.95120001
9.1343002 2.6468 -0.92869997
9.1379004 2.6478 -0.92460001
9.1153002 2.6716001 -0.94809997
9.1269999 2.6710999 -0.92839998
9.1553001 2.6236 -0.93129998
9.1791 2.6027 -0.96469998
9.1771002 2.6020999 -0.97659999
9.1801004 2.6019001 -0.97689998
9.1546001 2.6282001 -0.92680001
9.1399002 2.6499 -0.92180002
9.1875 2.6085 -0.94480002
9.1430998 2.6236 -0.94220001
9.1321001 2.7086 -1.0161
9.1219997 2.6644001 -0.93650001
9.1380997 2.6573 -0.92030001
9.1288004 2.6638 -0.92750001
9.1257 2.6577001 -0.93339998
9.1218004 2.6772001 -0.93529999
9.1363001 2.7133999 -1.017
9.1631002 2.6222 -0.92869997
9.1531 2.6240001 -0.93229997
9.1191998 2.6752 -0.93959999
9.1129999 2.6938 -0.96539998
9.1281004 2.7121999 -1.0067
9.1557999 2.6248 -0.9296
9.1328001 2.7077999 -1.0176001
9.1330996 2.6624 -0.92330003
9.1795998 2.6212001 -0.92559999
9.1141996 2.6928999 -0.958
9.1740999 2.6047001 -0.95709997
9.1589003 2.6257 -0.92690003
9.1632996 2.6566 -1.0434999
9.1310997 2.7119 -1.0118001
9.1363001 2.7019 -1.0251
9.1223001 2.6684 -0.93510002
9.1175003 2.7077999 -0.97710001
9.1208 2.7042999 -0.94989997
9.1191998 2.6763999 -0.93959999
9.1171999 2.6831 -0.94440001
9.1209002 2.6768999 -0.93669999
9.1128998 2.6903 -0.96109998
9.1248999 2.7147999 -0.99589998
9.1709003 2.6048999 -0.95829999
9.1183004 2.7093 -0.97839999
9.1220999 2.6605999 -0.93760002
9.1746998 2.6026001 -0.96890002
9.1190004 2.7107 -0.97729999
9.1777 2.6047001 -0.95560002
9.1197004 2.7084999 -0.99089998
9.1433001 2.6224999 -0.94370002
9.1226997 2.6884999 -0.93599999
9.1414003 2.6503 -0.92040002
9.1183004 2.7023001 -0.9544
9.1560001 2.6178999 -0.93849999
9.1197996 2.7119999 -0.97899997
9.1206999 2.7065001 -0.95289999
9.1561003 2.6324 -0.92220002
9.1506996 2.6385 -0.92070001
9.1337996 2.7091 -1.0178
9.1610003 2.609 -0.95289999
9.1575003 2.6104 -0.9526
9.1176004 2.7068 -0.96619999
9.1127005 2.6681001 -0.95679998
9.1237001 2.6777999 -0.9325
9.1196003 2.6898 -0.9418
9.1372995 2.6517999 -0.92309999
9.1380997 2.6373999 -0.93159997
9.1201 2.704 -0.95130002
9.1812 2.6043999 -0.95590001
9.1215 2.7149999 -0.97619998
9.1578999 2.6291001 -0.92409998
9.1688004 2.6066999 -0.9533
9.1829996 2.6062 -0.9501
9.1169004 2.7066 -0.97369999
9.1382999 2.6259999 -0.94480002
9.1134005 2.6891999 -0.95779997
9.1463003 2.641 -0.92189997
9.1801996 2.6019001 -0.97240001
9.1738997 2.6138 -0.93610001
9.1543999 2.6243999 -0.93089998
9.1475 2.6944001 -1.0366
9.1739998 2.6024001 -0.97600001
9.1709995 2.6085 -0.9472
9.1394997 2.6630001 -0.91759998
9.1485004 2.6326001 -0.9267
9.1233997 2.6981001 -0.93940002
9.1501999 2.6889999 -1.0395
9.1254997 2.6564 -0.93419999
9.1403999 2.7193 -1.0157
9.1124001 2.6914001 -0.96530002
9.1153002 2.6956999 -0.95660001
9.1159 2.6875 -0.94889998
9.1169996 2.7031 -0.99019998
9.165 2.6227 -0.92729998
9.1224003 2.7163999 -0.9763
9.1247997 2.7172 -0.99019998
9.1246004 2.7053001 -1.0077
9.1213999 2.7102001 -0.9939
9.1801996 2.6019001 -0.97839999
9.1218996 2.6808 -0.93540001
9.1269999 2.6979001 -1.0167
9.1430998 2.6428001 -0.92309999
9.1492996 2.6291001 -0.92940003
9.1801004 2.6089001 -0.94379997
9.1647997 2.6078 -0.95289999
9.1598997 2.6111 -0.9483
9.1415997 2.6384001 -0.92739999
9.1315002 2.6554 -0.92720002
9.1238003 2.7039001 -1.0075001
9.1184998 2.6823001 -0.94150001
9.1448002 2.6241 -0.93940002
9.1424999 2.6373999 -0.92739999
9.1281004 2.6714001 -0.92699999
9.1204996 2.6938 -0.94199997
9.1191998 2.6812999 -0.94
9.1247997 2.6805999 -0.93120003
9.1751003 2.6027 -0.96710002
9.1742001 2.6036999 -0.96130002
9.1379004 2.6768 -0.91750002
9.1285 2.665 -0.92750001
9.1786003 2.605 -0.95420003
9.1204996 2.7005 -0.94669998
9.1394997 2.6537001 -0.92040002
9.1477003 2.6336999 -0.92629999
9.1147003 2.6896 -0.95340002
9.1234999 2.7142999 -0.99269998
9.1613998 2.6217 -0.93000001
9.1872997 2.6027 -0.96399999
9.1415005 2.7009001 -1.0301
9.1309996 2.7072001 -1.0159
9.1196003 2.7119 -0.97439998
9.1175003 2.6772001 -0.94279999
9.1209002 2.6794 -0.9368
9.1604004 2.6166999 -0.93730003
9.1718998 2.6064999 -0.95200002
9.1281996 2.661 -0.9289
9.1597996 2.619 -0.93430001
9.1301003 2.7058001 -1.0158
9.1292 2.7147 -1.0057
9.1393003 2.625 -0.94489998
9.1387997 2.7000999 -1.0283
9.118 2.7079999 -0.98320001
9.1393995 2.7119999 -1.0215
9.1204996 2.7133999 -0.97729999
9.1239004 2.704 -0.9429
9.1679001 2.6041 -0.9655
9.1731005 2.6078999 -0.94770002
9.1274004 2.6489 -0.9357
9.1191998 2.7083001 -0.98940003
9.1304998 2.6616001 -0.92610002
9.1229 2.7119 -0.99559999
9.1215 2.7149999 -0.9777
9.1251001 2.7091 -1.0048
9.1166 2.6947999 -0.99900001
9.1392002 2.6577001 -0.9192
9.1282997 2.7005 -1.017
9.1731005 2.6170001 -0.93159997
9.1595001 2.6283 -0.92400002
9.1303997 2.7163999 -1.0056
9.1458998 2.6294 -0.93180001
9.1253004 2.7135999 -0.99919999
9.1681004 2.6189001 -0.93059999
9.1393995 2.6429 -0.92610002
9.1363001 2.7181001 -1.0123
9.1201 2.6993999 -0.94660002
9.1290998 2.6891 -0.92760003
9.1303997 2.7081001 -1.0144
9.1244001 2.6993999 -1.012
9.1245003 2.6612999 -0.93360001
9.1195002 2.7096 -0.98760003
9.1407003 2.6433001 -0.92470002
9.1681004 2.6214001 -0.92760003
9.1168003 2.7018001 -0.95880002
9.1189003 2.7037001 -0.95420003
9.1208 2.71 -0.99229997
9.1211004 2.7135999 -0.98339999
9.1286001 2.7088001 -1.0112
9.1293001 2.6612999 -0.92750001
9.1176996 2.7079 -0.96960002
9.158 2.6138 -0.94400001
9.1191998 2.6991 -0.94840002
9.1160002 2.6982 -0.95679998
9.1264 2.6870999 -0.9303
9.1184998 2.6882 -0.94319999
9.1294003 2.6730001 -0.92540002
9.1701002 2.6194999 -0.92919999
9.1774998 2.6275001 -0.91960001
9.1199999 2.711 -0.98619998
9.1759996 2.6087 -0.94489998
9.1220999 2.6619 -0.93699998
9.1708002 2.6071999 -0.95050001
9.1744003 2.6059 -0.9526
9.1646004 2.6169 -0.93470001
9.1681004 2.6110001 -0.94300002
9.1163998 2.7053001 -0.97060001
9.1260996 2.7138 -1.0008
9.1438999 2.6933999 -1.0347
9.1225004 2.6633 -0.93589997
9.1409998 2.6542001 -0.91900003
9.1225996 2.7105999 -0.99699998
9.1197004 2.7109001 -0.98470002
9.1183004 2.7093 -0.9709
9.1190996 2.6874001 -0.94169998
9.1236 2.7156 -0.99000001
9.1629 2.6129999 -0.94199997
9.1682997 2.6055 -0.95770001
9.1525002 2.6363001 -0.92110002
9.1238003 2.6812999 -0.93260002
9.1218004 2.7091 -0.95340002
9.1499004 2.6329999 -0.9253
9.1226997 2.6737001 -0.93379998
9.1156998 2.698 -0.99290001
9.1384001 2.6387 -0.93010002
9.1191998 2.6921999 -0.9436
9.1638002 2.6189001 -0.93229997
9.1152 2.6898 -0.95190001
9.1667004 2.6129999 -0.93989998
9.1813002 2.6066999 -0.94870001
9.1545 2.6331 -0.9224
9.1379004 2.6624999 -0.91890001
9.2011995 2.6135001 -1.0112
9.1630001 2.6175001 -0.9346
9.1726999 2.6099999 -0.94309998
9.1590996 2.6163001 -0.93870002
9.1125002 2.6947999 -0.97439998
9.1234999 2.6726 -0.93269998
9.1231003 2.6661999 -0.93419999
9.1486998 2.6403999 -0.9206
9.1211996 2.7114 -0.99089998
9.1134996 2.6773 -0.9526
9.1995001 2.6085 -1.0017999
9.1170998 2.6877999 -0.94599998
9.1774998 2.6022 -0.98119998
9.1324997 2.6370001 -0.9386
9.1217003 2.6819999 -0.93580002
9.1780005 2.6034999 -0.9601
9.1155996 2.7038 -0.97350001
9.1168003 2.7040999 -0.96310002
9.1208 2.7018001 -0.94709998
9.1570997 2.6182001 -0.93709999
9.1471004 2.6359999 -0.92479998
9.1671 2.6164 -0.93430001
9.1182003 2.7093 -0.97240001
9.1231003 2.7154 -0.9885
9.1281004 2.7063999 -1.0125999
9.1389999 2.7167001 -1.017
9.1190004 2.7107 -0.97130001
9.1805 2.602 -0.96939999
9.1147003 2.6919999 -0.95499998
9.1199999 2.6729 -0.93809998
9.1680002 2.6134 -0.9386
9.1386003 2.6522 -0.9217
9.1669998 2.6038001 -0.96990001
9.1282997 2.645 -0.93720001
9.1532001 2.6774001 -1.0424
9.1541996 2.6268001 -0.92830002
9.1141996 2.687 -0.9533
9.1178999 2.6684 -0.94260001
9.1173 2.6891 -0.9461
9.1515999 2.6273 -0.92949998
9.1709003 2.6094999 -0.94480002
9.1581001 2.615 -0.94160002
9.1517 2.6285999 -0.92809999
9.1145 2.6673999 -0.95090002
9.1367998 2.6501999 -0.9242
9.1409998 2.6217999 -0.94800001
9.1316004 2.7061999 -1.0175
9.1443005 2.6352 -0.92760003
9.1758003 2.6052001 -0.95420003
9.1189003 2.7095001 -0.98460001
9.1835003 2.6050999 -0.95310003
9.125 2.7007999 -1.0121
9.1113997 2.6703999 -0.96130002
9.1414003 2.6475999 -0.92159998
9.125 2.6666999 -0.9314
9.1191998 2.6726999 -0.93949997
9.1148996 2.6884 -0.95190001
9.1406002 2.6266 -0.94059998
9.1175003 2.7077999 -0.97109997
9.1253996 2.6914001 -1.0176001
9.1773005 2.6033001 -0.96130002
9.1147003 2.6870999 -0.95179999
9.1323996 2.7121999 -1.0135
9.1293001 2.6756999 -0.92540002
9.1230001 2.6568999 -0.93760002
9.1273003 2.6991999 -1.0165
9.1583004 2.622 -0.93120003
9.1403999 2.6241 -0.9447
9.1269999 2.7140999 -1.0024
9.1667995 2.6231999 -0.926
9.1374998 2.7079999 -1.0227
9.1280003 2.7144001 -1.0039999
9.1696997 2.6080999 -0.94859999
9.1448002 2.6405001 -0.92320001
9.1398001 2.6276 -0.94019997
9.1419001 2.6345 -0.9303
9.1251001 2.6601 -0.93309999
9.1559 2.6166 -0.94050002
9.1732998 2.6034999 -0.96270001
9.1294003 2.6468 -0.93430001
9.1146002 2.7012 -0.97210002
9.1814003 2.6182001 -0.92879999
9.1217003 2.6591001 -0.93870002
9.1134996 2.6961999 -0.96579999
9.1444998 2.6431999 -0.9217
9.1194 2.7038 -0.95270002
9.1688995 2.6057 -0.95630002
9.1167002 2.7005999 -0.95719999
9.1406002 2.7147 -1.0204999
9.1168003 2.7066 -0.97670001
9.1386995 2.7176001 -1.0158
9.1210003 2.6693001 -0.9368
9.1795998 2.6018 -0.97390002
9.1246996 2.6703999 -0.93120003
9.1268997 2.7131 -1.0036
9.1281996 2.6816001 -0.92699999
9.1232004 2.7107 -0.99860001
9.1168003 2.6995001 -0.95539999
9.1106005 2.6800001 -0.96600002
9.1275997 2.6582 -0.93049997
9.1173 2.7068 -0.98280001
9.1274004 2.6622 -0.92940003
9.1294003 2.7068 -1.0142
9.1391001 2.7060001 -1.0255001
9.1802998 2.6201 -0.92659998
9.1382999 2.7198999 -1.0128
9.1343002 2.6628001 -0.92189997
9.1257 2.6784 -0.92970002
9.1274996 2.7167001 -0.99949998
9.1176996 2.7056 -0.96170002
9.1345997 2.6482999 -0.92729998
9.1244001 2.7133 -0.99760002
9.1178999 2.6987 -0.95120001
9.1205997 2.7088001 -0.99409997
9.1608 2.618 -0.935
9.1721001 2.6087999 -0.94580001
9.1568003 2.6313 -0.92259997
9.1801996 2.6019001 -0.98000002
9.1367998 2.7160001 -1.0153
9.1118002 2.6875 -0.96359998
9.1415997 2.6422999 -0.92449999
9.1838999 2.6064999 -0.949
9.1803999 2.602 -0.98150003
9.1289997 2.6691 -0.92610002
9.1183004 2.7045 -0.99339998
9.1735001 2.6092 -0.94440001
9.1597996 2.6212001 -0.93129998
9.1234999 2.6463001 -0.94400001
9.1190996 2.7095001 -0.98610002
9.1171999 2.654 -0.95139998
9.1212997 2.7137001 -0.9849
9.1570997 2.6252 -0.92820001
9.1476002 2.6201999 -0.94220001
9.1777 2.6022999 -0.96759999
9.1236 2.6649001 -0.93370003
9.1358004 2.6514001 -0.92449999
9.1772003 2.6022 -0.9691
9.1288004 2.7076001 -1.0127
9.1596003 2.6201 -0.93279999
9.1183004 2.7035 -0.95560002
9.1149998 2.6777 -0.9483
9.1477003 2.6262 -0.93370003
9.1589003 2.6108 -0.9497
9.1198997 2.6815 -0.9386
9.1233997 2.6789 -0.93279999
9.1162004 2.7039001 -0.96600002
9.1597004 2.6224 -0.92989999
9.1837997 2.6017001 -0.9727
9.1857004 2.6078999 -1.0049
9.125 2.7125001 -1.0003999
9.1569996 2.6169 -0.93910003
9.1394997 2.6389999 -0.92869997
9.1209002 2.6668 -0.93739998
9.1567001 2.6215999 -0.93260002
9.1280003 2.6752999 -0.92680001
9.1211004 2.7089 -0.99559999
9.1129999 2.6960001 -0.98089999
9.1205997 2.7030001 -0.94859999
9.1152 2.6610999 -0.95169997
9.1259003 2.7128 -1.002
9.1469002 2.6424999 -0.92040002
9.1677999 2.6178 -0.93199998
9.1434002 2.6273999 -0.93629998
9.1163998 2.7052 -0.9691
9.1304998 2.6578 -0.92720002
9.1405001 2.6485 -0.92180002
9.1222 2.7 -0.94260001
9.1708002 2.6164 -0.93290001
9.1211996 2.7007 -1.0053999
9.1787004 2.6036999 -0.9587
9.1245003 2.6729 -0.93120003
9.1259003 2.7103 -1.0052
9.1496 2.6394 -0.9206
9.1843996 2.6031001 -0.96069998
9.1717997 2.6075001 -0.949
9.1470003 2.6322 -0.92799997
9.1348 2.6616001 -0.9217
9.1128998 2.6949 -0.98320001
9.1147003 2.6700001 -0.94950002
9.1782999 2.6083 -0.94510001
9.1667995 2.6050999 -0.96060002
9.1654997 2.6091001 -0.94849998
9.1395998 2.6238999 -0.9461
9.1313 2.7096 -1.0145
9.1351004 2.6565001 -0.92299998
9.1246996 2.7042 -1.0091
9.1297998 2.6561999 -0.92860001
9.1166 2.6889 -0.94749999
9.1232996 2.7086 -0.94870001
9.1324997 2.7053001 -1.0193
9.1169004 2.6793001 -0.94400001
9.1224003 2.6786001 -0.93419999
9.1117001 2.6852 -0.96200001
9.1148005 2.6942999 -0.95649999
9.1229 2.7037001 -0.9443
9.1269999 2.7096 -1.008
9.1199999 2.7086 -0.99250001
9.1666002 2.6106 -0.94440001
9.1233997 2.7119999 -0.99720001
9.1730003 2.6056001 -0.95389998
9.1434002 2.6262 -0.93779999
9.1473999 2.6895001 -1.038
9.1489 2.6241 -0.93519998
9.1854 2.6034 -0.95929998
9.1478996 2.6287 -0.9307
9.1129999 2.6949999 -0.9666
9.1559 2.6143999 -0.94440001
9.1701002 2.6105001 -0.9429
9.1148005 2.6687 -0.94950002
9.1458998 2.6436 -0.92040002
9.1104002 2.6824 -0.96929997
9.1364002 2.6568 -0.9217
9.1154003 2.6886001 -0.95039999
9.1141005 2.6998 -0.97960001
9.1576004 2.6126001 -0.94660002
9.1296997 2.6926999 -1.0226001
9.1218004 2.6695001 -0.93540001
9.1216002 2.6485 -0.94569999
9.1170998 2.7007 -0.95569998
9.1169004 2.6733 -0.94379997
9.1482 2.7028999 -1.0339
9.1265001 2.7023001 -1.0135
9.1638002 2.6075001 -0.95429999
9.1267004 2.7118001 -1.005
9.1344995 2.651 -0.92589998
9.1141996 2.6919 -0.95639998
9.1400003 2.6910999 -1.0326999
9.1148005 2.6882999 -0.99860001
9.1274004 2.7072001 -1.011
9.1358004 2.6354001 -0.93580002
9.1386003 2.6335001 -0.93449998
9.1176004 2.7009001 -0.95429999
9.1202002 2.6521001 -0.94559997
9.1513004 2.6259999 -0.93099999
9.1257 2.7114999 -1.0034
9.1164999 2.6829 -0.94550002
9.125 2.7077999 -1.0063
9.1657 2.6070001 -0.95420003
9.1253996 2.6628001 -0.93169999
9.1392002 2.7155001 -1.0185
9.1625004 2.6106 -0.94700003
9.1120996 2.6935 -0.97289997
9.1185999 2.6530001 -0.94849998
9.1128998 2.6842999 -0.95609999
9.1701002 2.6034999 -0.96569997
9.1129999 2.6926 -0.96240002
9.1299 2.6482 -0.93260002
9.1217003 2.6998 -1.0072
9.1188002 2.7047 -0.995
9.1205997 2.7112 -0.98930001
9.1199999 2.6508 -0.94709998
9.1251001 2.7066 -1.0077
9.1794004 2.6062 -0.94999999
9.1253996 2.6997001 -1.0136
9.1184998 2.6954 -1.0037
9.1252003 2.7019 -1.0118001
9.1725998 2.6033001 -0.9641
9.1268997 2.7105999 -1.0068001
9.1683998 2.6078 -0.94989997
9.1170998 2.7019 -0.95730001
9.1490002 2.6217999 -0.9382
9.1409998 2.7054999 -1.0275
9.1234999 2.6981001 -1.0116
9.1857004 2.6022999 -0.96539998
9.1549997 2.6119001 -0.95090002
9.1740999 2.6082001 -0.94630003
9.1190996 2.6800001 -0.93970001
9.1115999 2.6861999 -0.96319997
9.1185999 2.6847999 -0.94160002
9.1549997 2.6308 -0.92390001
9.1365004 2.6529 -0.92309999
9.1746998 2.6038001 -0.9598
9.1240997 2.6598001 -0.93449998
9.1122999 2.6840999 -0.99220002
9.1217003 2.7149999 -0.98229998
9.1220999 2.6659 -0.93559998
9.1477003 2.6349001 -0.92510003
9.1159 2.6677999 -0.94690001
9.1682997 2.6145 -0.93650001
9.1300001 2.6454999 -0.93430001
9.1666002 2.6071999 -0.95279998
9.1141005 2.6975999 -0.9641
9.1114998 2.6839001 -0.96200001
9.1155996 2.6898999 -0.95050001
9.1224003 2.6593001 -0.93730003
9.1113005 2.6861 -0.96499997
9.1135998 2.6939001 -0.9896
9.1688004 2.6032 -0.9716
9.1124001 2.6935999 -0.9684
9.1744003 2.6025 -0.98210001
9.1731997 2.6113 -0.94019997
9.1366997 2.6357 -0.93440002
9.1169004 2.7031 -0.95999998
9.1639004 2.6133001 -0.94059998
9.1167002 2.7053001 -0.9842
9.1281996 2.6982 -1.0184
9.1293001 2.7112999 -1.0101
9.1122999 2.6707001 -0.95679998
9.1239996 2.7098 -1.002
9.1640997 2.6540999 -1.0432
9.1143999 2.7011001 -0.97509998
9.1410999 2.6243 -0.94319999
9.1138 2.6905 -0.95660001
9.1163998 2.704 -0.96450001
9.1204004 2.7133999 -0.9788
9.1174002 2.7068 -0.98430002
9.1136999 2.6984999 -0.98070002
9.1673002 2.6039 -0.96700001
9.1852999 2.6020999 -0.96679997
9.1816998 2.6046 -0.95450002
9.1737003 2.6022999 -0.97299999
9.1142998 2.6882 -0.9533
9.1135998 2.6952 -0.9878
9.1120996 2.6768 -0.95700002
9.1540003 2.622 -0.93379998
9.1152 2.691 -0.95230001
9.1181002 2.701 -0.95279998
9.1489 2.6863999 -1.0395
9.1194 2.7118001 -0.9774
9.1149998 2.6977999 -0.95969999
9.1143999 2.7011001 -0.9763
9.1208 2.6805 -0.9368
9.1836996 2.6017001 -0.97119999
9.1693001 2.6033001 -0.96859998
9.1407003 2.6254001 -0.94199997
9.1283998 2.6465001 -0.9357
9.1451998 2.642 -0.92180002
9.1276999 2.7026 -1.0151
9.1740999 2.6024001 -0.9806
9.1330004 2.6491001 -0.92839998
9.1458998 2.6777999 -1.0387
9.1147003 2.7012 -0.9691
9.1393995 2.6324999 -0.9346
9.1525002 2.6313 -0.9249
9.1289997 2.6793001 -1.0247999
9.1258001 2.6988001 -1.0148
9.1695004 2.6034 -0.96719998
9.1255999 2.6745999 -0.9296
9.1162996 2.7052 -0.98110002
9.1487999 2.6264999 -0.93229997
9.1331997 2.6599 -0.92360002
9.1615 2.6103001 -0.94840002
9.1603003 2.6156001 -0.93879998
9.1191998 2.7026 -0.9515
9.1153002 2.6932001 -0.95359999
9.1271 2.6540999 -0.93279999
9.1555004 2.6728001 -1.0434999
9.1739998 2.6024001 -0.97000003
9.1668997 2.6061001 -0.95609999
9.1246004 2.6586001 -0.93419999
9.1239004 2.711 -1.0002
9.1310997 2.6956 -1.0231
9.1154003 2.7037001 -0.97500002
9.1104002 2.6774001 -0.9659
9.1344995 2.7047 -1.022
9.1143999 2.7011001 -0.97359997
9.1638002 2.6552999 -1.0434999
9.1173 2.6984999 -0.95240003
9.1461 2.6331999 -0.92769998
9.1362 2.7088001 -1.021
9.1443005 2.6277001 -0.93489999
9.1246996 2.6691 -0.93120003
9.1120996 2.684 -0.95899999
9.1254997 2.6681001 -0.9303
9.1169004 2.6719999 -0.94379997
9.1153002 2.6967001 -0.95700002
9.1478996 2.6993999 -1.0353
9.1281004 2.6675999 -0.92720002
9.1237001 2.6584001 -0.93559998
9.1127005 2.6960001 -0.9763
9.1292 2.7103 -1.011
9.1230001 2.7024 -1.0077
9.1156998 2.6547999 -0.95490003
9.1183004 2.6998999 -0.95099998
9.1232004 2.6594999 -0.93589997
9.1581001 2.6196001 -0.93419999
9.1201 2.7098 -0.99070001
9.1124001 2.6863999 -0.95910001
9.1175003 2.6784 -0.9425
9.1419001 2.6245 -0.9418
9.1201 2.711 -0.98769999
9.1157999 2.7014999 -0.9885
9.1182003 2.6761 -0.94099998
9.1673002 2.6075001 -0.95130002
9.1403999 2.7205999 -1.0146
9.1164999 2.7030001 -0.96149999
9.1393003 2.6847999 -1.0336
9.1504002 2.6210001 -0.93800002
9.1543999 2.6752999 -1.0431
9.1342001 2.7082 -1.0193
9.1598997 2.6087 -0.95429999
9.1637001 2.6122 -0.94270003
9.1760998 2.6029999 -0.96289998
9.1799002 2.6029 -0.96179998
9.1129999 2.6914999 -0.96079999
9.1246996 2.7112 -1.0017999
9.1231003 2.7095001 -1.0003999
9.1191998 2.6837001 -0.94010001
9.118 2.6953001 -0.94779998
9.1138 2.6594 -0.95730001
9.1141996 2.6907001 -0.95520002
9.1190996 2.6531 -0.94709998
9.1266003 2.7060001 -1.0109
9.1667004 2.6140001 -0.93790001
9.1148996 2.7025001 -0.97490001
9.1385002 2.7095001 -1.0228
9.1239996 2.7121999 -0.99870002
9.1204996 2.6781001 -0.93699998
9.1386995 2.6363001 -0.93159997
9.1260004 2.6603 -0.93159997
9.1236 2.7014999 -0.94099998
9.1124001 2.6912999 -0.96380001
9.1399002 2.6471 -0.92290002
9.1197004 2.6533 -0.94559997
9.1667995 2.6480999 -1.0418
9.1360998 2.6252999 -0.94910002
9.1379004 2.6424999 -0.92750001
9.1639004 2.6154001 -0.93699998
9.1131001 2.6973 -0.97310001
9.1704998 2.6061001 -0.95340002
9.1664 2.6036999 -0.97140002
9.1101999 2.6773 -0.96740001
9.1155005 2.6777999 -0.94679999
9.1610003 2.6192999 -0.93290001
9.1660995 2.6059 -0.95749998
9.1161003 2.6614001 -0.94880003
9.1148996 2.7025001 -0.97640002
9.1316996 2.6542001 -0.92720002
9.1379995 2.6782 -1.0333
9.1430998 2.6401 -0.92460001
9.1843996 2.6076 -0.94599998
9.1346998 2.6536 -0.92439997
9.1338997 2.7033999 -1.0222
9.1374998 2.701 -1.027
9.1373997 2.6294 -0.94059998
9.1198997 2.6802001 -0.9382
9.1195002 2.6861999 -0.94019997
9.1569996 2.6066999 -0.97030002
9.1209002 2.7135999 -0.96710002
9.1227999 2.6489 -0.94279999
9.1190004 2.6738999 -0.93949997
9.1149998 2.6989 -0.9612
9.1198997 2.6826999 -0.9386
9.1754999 2.6108 -0.9404
9.1182003 2.681 -0.94139999
9.1737003 2.6022999 -0.97180003
9.1400995 2.6995001 -1.0299
9.1715002 2.6039 -0.96130002
9.158 2.6171999 -0.93769997
9.1206999 2.7135 -0.96820003
9.1365004 2.7053001 -1.0237
9.1139002 2.6998 -0.97350001
9.1538 2.6255 -0.92970002
9.1352997 2.6391001 -0.93279999
9.1159 2.6852 -0.94739997
9.1101999 2.6786001 -0.9677
9.1145 2.6823001 -0.9501
9.1225004 2.6798999 -0.93400002
9.1287003 2.7019 -1.017
9.1653996 2.6057 -0.95899999
9.1213999 2.7149 -0.98070002
9.1225996 2.6835001 -0.93440002
9.1143999 2.7011001 -0.9781
9.1209002 2.6640999 -0.93790001
9.1133003 2.658 -0.96079999
9.1527004 2.6215999 -0.93519998
9.1476002 2.6273999 -0.93220001
9.1398001 2.6366 -0.93019998
9.1195002 2.6519001 -0.94709998
9.1124001 2.6947999 -0.97860003
9.1218996 2.7009001 -1.0069
9.1161003 2.6666 -0.94660002
9.1426001 2.6638999 -0.9149
9.1219997 2.7021 -1.0061001
9.1166 2.6768999 -0.94419998
9.1148005 2.6931 -0.95499998
9.1554003 2.6152999 -0.9429
9.1407003 2.6356001 -0.93019998
9.1673002 2.6052001 -0.95910001
9.1188002 2.6908 -0.94330001
9.1374998 2.6987 -1.0281
9.1175003 2.7077999 -0.98159999
9.1341 2.7056999 -1.021
9.1129999 2.658 -0.9623
9.1153002 2.6849999 -0.94880003
9.1737003 2.6022999 -0.97899997
9.1192999 2.6956 -0.94499999
9.1146002 2.6954 -0.99250001
9.1205997 2.6817 -0.93720001
9.1266003 2.6552999 -0.93279999
9.1548004 2.6141 -0.94580001
9.1435003 2.6377001 -0.926
9.1157999 2.6535001 -0.9558
9.1271 2.6473999 -0.9368
9.1436996 2.704 -1.0305001
9.1192999 2.7118001 -0.97589999
9.1711998 2.6029 -0.96850002
9.1688995 2.6032 -0.97009999
9.1653004 2.6078999 -0.9515
9.1419001 2.6951001 -1.033
9.1568003 2.6145999 -0.94300002
9.1487999 2.6875999 -1.0393
9.1099005 2.6761999 -0.97030002
9.1134005 2.6974001 -0.98210001
9.1184998 2.6698 -0.94080001
9.1570997 2.6668 -1.0437
9.1684999 2.6031001 -0.97610003
9.1423998 2.6284001 -0.93589997
9.1107998 2.6824999 -0.96490002
9.1362 2.7063 -1.0228
9.1141996 2.6847 -0.95169997
9.1127005 2.6959 -0.97180003
9.1174002 2.6916001 -1.0038
9.1141005 2.6998 -0.98110002
9.1824999 2.6036999 -0.95749998
9.1761999 2.6019001 -0.97500002
9.1185999 2.7012 -0.95139998
9.1707001 2.6027 -0.97299999
9.1764002 2.6019001 -0.97350001
9.1412001 2.7077999 -1.0264
9.1447001 2.6366999 -0.92580003
9.1218004 2.6845 -0.93580002
9.1245003 2.6959 -1.0146
9.1686001 2.6031001 -0.97310001
9.1167002 2.6970999 -0.9526
9.1302996 2.6721001 -0.9242
