# .PCD v0.7 - Point Cloud Data file format
VERSION 0.7
FIELDS x y z
SIZE 4 4 4
TYPE F F F
COUNT 1 1 1
WIDTH 1704
HEIGHT 1
VIEWPOINT 0 0 0 1 0 0 0
POINTS 1704
DATA ascii
9.4011002 1.4804 -1.0164
9.3662996 1.587 -1.0131
9.3711996 1.5992 -0.95490003
9.4076004 1.4991 -0.91670001
9.3753996 1.5978 -0.94599998
9.3664999 1.5973001 -0.95899999
9.3767004 1.5935 -0.93790001
9.3622999 1.5966001 -0.97359997
9.3556004 1.5852 -0.99830002
9.3606997 1.5793 -1.015
9.3809004 1.5987 -0.94230002
9.3797998 1.6075 -0.97399998
9.3649998 1.5948 -0.99769998
9.3606005 1.5951999 -0.97759998
9.3606997 1.5953 -0.97610003
9.3628998 1.5967 -0.9691
9.3671999 1.5951999 -1.0009
9.4064999 1.4682 -0.98229998
9.3715 1.5947 -0.94489998
9.3718004 1.5982 -1.0015
9.3676004 1.5986 -0.96060002
9.3729 1.5905 -1.0156
9.3631001 1.5957 -0.99000001
9.3922005 1.5881 -0.92360002
9.3627996 1.5899 -1.0039999
9.4111004 1.4737999 -0.94779998
9.4088001 1.4722 -0.95179999
9.3590002 1.5846 -1.0062
9.3683004 1.5862 -1.0163
9.3681002 1.5872999 -1.0148
9.3647003 1.5764 -1.022
9.3662996 1.5882 -1.0116
9.3603001 1.594 -0.98659998
9.3731003 1.5906 -0.93720001
9.3716002 1.5833 -1.0223
9.3591003 1.5696 -1.021
9.375 1.5908999 -0.93589997
9.3690996 1.6001 -0.9623
9.3704996 1.5901 -1.0138
9.3751001 1.5806 -1.0272
9.3715 1.5705 -1.0314
9.3706999 1.5933 -1.0094
9.3631001 1.5967 -0.9677
9.3634005 1.5933 -0.95469999
9.3702002 1.5991 -0.95630002
9.3709002 1.5934 -0.94340003
9.3715 1.5959001 -1.0059
9.3801003 1.6075 -0.97109997
9.3657999 1.5915999 -1.0058
9.4017 1.4793 -1.0149
9.3713999 1.5959001 -0.94709998
9.3697996 1.5956 -1.0042
9.3694 1.5772001 -1.0256
9.3762999 1.5967 -0.94300002
9.3603001 1.5928 -0.99169999
9.4127998 1.4680001 -0.97839999
9.3550997 1.5898 -0.97759998
9.3745003 1.5931 -0.93919998
9.3640003 1.5969 -0.96469998
9.3641996 1.5843 -1.0140001
9.3650999 1.5971 -0.96179998
9.3727999 1.5961 -0.94569999
9.3643999 1.5867 -1.0113
9.3684998 1.5966001 -0.95279998
9.3666 1.5963 -0.95560002
9.3766003 1.5829999 -0.92659998
9.3701 1.5957 -0.94840002
9.3807001 1.6064 -0.991
9.3782997 1.605 -0.99229997
9.3703003 1.5865 -1.018
9.3744001 1.5964 -0.94440001
9.3570995 1.5854 -1.0015
9.3561001 1.5908999 -0.97799999
9.3683996 1.5954 -1.0026
9.3631001 1.5864 -1.01
9.3666 1.5791 -1.0217
9.3797998 1.6075 -0.97250003
9.3877001 1.5839 -0.92159998
9.3605003 1.5895 -1.0007
9.3688002 1.5759 -1.0261
9.3846998 1.6071 -0.95819998
9.3694 1.5922 -0.94319999
9.3668003 1.5825 -1.0188
9.3615999 1.5954 -0.96719998
9.3696003 1.5968 -0.95139998
9.3734999 1.5393 -1.0401
9.3614998 1.5862 -1.008
9.3725004 1.5937001 -0.94199997
9.3575001 1.5923001 -0.97939998
9.3610001 1.5953 -0.97009999
9.3550997 1.5898 -0.97909999
9.3837996 1.6003 -0.94260001
9.3606005 1.5872999 -1.0049
9.3919001 1.5727 -0.9131
9.3586998 1.5925 -0.98699999
9.3635998 1.5921 -1.0014
9.3569002 1.591 -0.96749997
9.3741999 1.594 -0.94069999
9.3821001 1.6079 -0.96670002
9.3631001 1.5911 -1.0025001
9.3613997 1.5896 -1.0023
9.3772001 1.5901 -0.93309999
9.3657999 1.5845 -1.0157
9.3577995 1.5844001 -1.0046
9.3704004 1.5877 -1.0168
9.3674002 1.5781 -1.0233001
9.3621998 1.5796 -1.0167
9.3607998 1.5953 -0.9716
9.3849001 1.6083 -0.96280003
9.3741999 1.5918 -0.93760002
9.3645 1.5879 -1.0099
9.3662004 1.5937999 -0.95039999
9.3683004 1.5897 -1.0121
9.3892002 1.5769 -0.91619998
9.3783998 1.5937001 -0.93660003
9.3725996 1.5928 -0.94050002
9.3636999 1.5738 -1.0231
9.3870001 1.5802 -0.91909999
9.3612003 1.5886 -1.0038
9.3618002 1.5875 -1.0066
9.4296999 1.4959 -0.92269999
9.3605003 1.594 -0.98809999
9.3765001 1.5956 -0.94090003
9.3662004 1.5754 -1.0243
9.3689003 1.5795 -1.0235
9.3618002 1.5735 -1.0214
9.3615999 1.5942 -0.99129999
9.3641996 1.5935 -0.9533
9.3655996 1.5283 -1.0337
9.3785 1.5959001 -0.93959999
9.4235001 1.4708 -0.99129999
9.3783998 1.5811 -1.029
9.3713999 1.5867 -0.93400002
9.3708 1.5924 -0.9418
9.3663998 1.595 -0.9526
9.3634005 1.5957 -0.99150002
9.3584003 1.5833 -1.0073
9.3701 1.5853 -1.0192
9.4049997 1.4953001 -0.91949999
9.3606997 1.5699 -1.0227
9.3673 1.594 -0.949
9.3599997 1.5848 -1.0078
9.3650999 1.5936 -0.95179999
9.3655005 1.5949 -0.954
9.3648005 1.596 -0.95850003
9.3643999 1.5788 -1.0199
9.3603001 1.594 -0.9655
9.3614998 1.5930001 -0.99489999
9.3691998 1.5688 -1.0308
9.3584995 1.5811 -1.0103
9.3590002 1.5937999 -0.97289997
9.3613005 1.585 -1.0095
9.3681002 1.5806 -1.0219001
9.3601999 1.586 -1.0064
9.3632002 1.5933 -0.99809998
9.3666 1.5984 -0.96200001
9.3746004 1.5953 -0.94220001
9.3718004 1.5776 -1.0273
9.4087 1.4903001 -0.92369998
9.4258003 1.47 -0.98280001
9.3505001 1.5728 -1.006
9.3587999 1.5937001 -0.97439998
9.3694 1.5818 -1.022
9.3824997 1.6079 -0.96530002
9.3727999 1.595 -0.9436
9.3711004 1.5903 -0.93849999
9.3549004 1.5875 -0.99110001
9.3598003 1.5835 -1.0093
9.3821001 1.584 -0.92409998
9.3691998 1.5931 -0.9447
9.3971996 1.4841 -1.0209
9.3724003 1.5789 -1.0268
9.3625002 1.576 -1.0203
9.3575001 1.5923001 -0.98089999
9.3761997 1.5922 -0.93629998
9.3619003 1.5955 -0.96569997
9.3580999 1.5856 -1.0034
9.3647003 1.5834 -1.0158
9.3683996 1.5700001 -1.0296
9.3582001 1.5924 -0.98549998
9.3641996 1.5969 -0.96329999
9.3692999 1.5875 -0.9368
9.3547001 1.585 -0.99699998
9.3655005 1.5961 -0.95700002
9.3727999 1.5994999 -1.0003999
9.3954 1.4894 -1.0265
9.3584995 1.5891 -0.9975
9.3768997 1.5913 -0.9346
9.3649998 1.5777 -1.0215
9.3606005 1.594 -0.96399999
9.3654003 1.5982 -0.96490002
9.3561001 1.5899 -0.96560001
9.3751001 1.5965 -1.0093
9.3748999 1.6023 -0.99610001
9.3624001 1.5919 -0.99980003
9.3740997 1.5826 -0.9278
9.3688002 1.5829 -1.0204999
9.3779001 1.597 -0.94169998
9.3710003 1.5844001 -1.021
9.3790998 1.5835 -0.9253
9.3705997 1.5319999 -1.0379
9.3572998 1.5923001 -0.97479999
9.3684998 1.5954 -0.94980001
9.3586998 1.5937001 -0.97589999
9.3795996 1.5973001 -0.94069999
9.3704996 1.5844001 -0.93229997
9.3622999 1.5931 -0.95609999
9.3758001 1.5942 -0.9393
9.408 1.5037 -0.91350001
9.3664999 1.5684 -1.029
9.3579998 1.5705 -1.0194
9.3558998 1.5908 -0.9795
9.3613997 1.5828 -1.0125
9.3535995 1.5883 -0.97469997
9.3576002 1.5923001 -0.9824
9.3548002 1.5897 -0.97600001
9.3655996 1.5741 -1.0247999
9.3790998 1.5915999 -0.93330002
9.3640003 1.5833 -0.93769997
9.3557997 1.5908 -0.97649997
9.3664999 1.5836999 -1.0175
9.3639002 1.5958 -0.95990002
9.3621998 1.5955 -0.96420002
9.3639002 1.5750999 -1.0225
9.3695002 1.5714 -1.0297
9.3726997 1.5983 -1.0031
9.3697996 1.5666 -1.0324
9.3659 1.5983 -0.96340001
9.3620996 1.5887001 -1.0053999
9.4219999 1.4837 -1.0202
9.3737001 1.5156 -1.0352
9.3998003 1.5915999 -0.92470002
9.3620996 1.5931 -0.9964
9.3710003 1.5762 -1.0278
9.3558998 1.5887001 -0.99119997
9.3730001 1.5962 -1.0075999
9.3628998 1.5877 -1.0082
9.3662004 1.5882 -0.94099998
9.3683004 1.5554 -1.0353
9.3599997 1.5906 -0.99769998
9.3513002 1.5729001 -1.0075999
9.3615999 1.5942 -0.96109998
9.3636999 1.5798 -1.0184
9.3641996 1.568 -1.0273
9.3655996 1.5801001 -1.0201
9.3571997 1.5693001 -1.0193
9.3716002 1.523 -1.0366
9.3577003 1.589 -0.99589998
9.3703003 1.5582 -1.0359
9.3586998 1.5824 -1.0092
9.3535004 1.5861 -0.99059999
9.3590002 1.5937999 -0.97140002
9.3710003 1.5878 -0.93540001
9.3668003 1.5813 -1.0202
9.3587999 1.5857 -1.0046999
9.3691998 1.5899 -0.93980002
9.3633003 1.5889 -1.007
9.3610001 1.5953 -0.96859998
9.3619003 1.5747 -1.0208
9.3562002 1.5908999 -0.98250002
9.3580999 1.5924 -0.96740001
9.3572998 1.5923001 -0.97329998
9.3989 1.4921 -1.03
9.3542995 1.5874 -0.98949999
9.3607998 1.5907 -0.9993
9.3807001 1.5849 -0.92549998
9.3648005 1.5892 -1.0087
9.375 1.5711 -0.91930002
9.3589001 1.5882 -1.0005
9.3610001 1.5941 -0.96259999
9.3832998 1.6081001 -0.9641
9.3571997 1.5923001 -0.9763
9.3552999 1.5876 -0.99260002
9.3591995 1.587 -1.0033
9.4061003 1.4922 -0.92189997
9.3806 1.5963 -0.93830001
9.3596001 1.5905 -0.9558
9.3551998 1.5898 -0.97009999
9.3584003 1.5912 -0.99180001
9.3591003 1.5904 -0.99610001
9.3597002 1.5731 -1.0196
9.3744001 1.5233999 -1.0384001
9.3727999 1.5881 -0.93409997
9.3709002 1.5891 -0.93699998
9.3548002 1.5839 -0.99970001
9.4031 1.4689 -0.98830003
9.3539 1.5861 -0.99220002
9.3718004 1.5822001 -1.0238
9.3648005 1.5980999 -0.96630001
9.3591003 1.5779001 -1.0148
9.3587999 1.579 -1.0132999
9.3692999 1.5829999 -0.93190002
9.3566999 1.5878 -0.95660001
9.3963003 1.4818 -1.0177
9.3606005 1.5781 -1.0165
9.3704996 1.5726 -1.0298001
9.3697004 1.5617 -1.0344
9.3597002 1.5939 -0.96700001
9.3563995 1.5888 -0.9928
9.3614998 1.5930001 -0.95749998
9.3582001 1.5869 -1.0016
9.3678999 1.5745 -1.0266
9.3607998 1.5941 -0.98970002
9.3611002 1.5816 -1.0136
9.3746996 1.5897 -0.93430001
9.4047003 1.4679 -0.98030001
9.3690004 1.5225 -1.0348001
9.3635998 1.5946 -0.95679998
9.3600998 1.5743999 -1.0191
9.3872995 1.5815001 -0.91970003
9.3691998 1.5888 -0.93830001
9.3529997 1.586 -0.96380001
9.3799 1.5778 -0.92049998
9.3559999 1.5908999 -0.98100001
9.4075003 1.4708 -0.95529997
9.3564997 1.5842 -1.0029
9.3827 1.5807 -0.92110002
9.3788004 1.5868 -0.92830002
9.3704996 1.5454 -1.0384001
9.3753004 1.5874 -0.93129998
9.3516998 1.5742 -1.0071
9.3577995 1.5924 -0.96890002
9.3533001 1.5733 -1.0108
9.3711004 1.5833 -0.93059999
9.3645 1.5657001 -1.0288
9.3684998 1.584 -1.0193
9.3828001 1.5795 -0.92019999
9.3550997 1.5784 -1.0084
9.3604002 1.5907 -0.95429999
9.3800001 1.551 -0.91009998
9.3725996 1.5893 -0.93559998
9.3837004 1.5854 -0.92430001
9.3704004 1.548 -1.0381
9.3668003 1.5661 -1.0305001
9.3768997 1.5797 -0.9235
9.3598003 1.5707999 -1.0214
9.3675003 1.5274 -1.0351
9.3676004 1.5928 -0.94599998
9.3575001 1.5923001 -0.97030002
9.3688002 1.5603 -1.0343
9.3528004 1.5824 -0.99769998
9.3760996 1.5863 -0.9296
9.3704996 1.5749 -1.0283999
9.3631001 1.5582 -1.0306
9.3935003 1.4879 -1.0245
9.3676996 1.5861 -0.93660003
9.3648996 1.5337 -1.0343
9.3570995 1.5809 -1.0087
9.3676004 1.5919 -0.94450003
9.3606005 1.5885 -0.94950002
9.3561001 1.5749 -1.0136
9.3549004 1.5897 -0.97149998
9.3592997 1.5937999 -0.9684
9.3717003 1.5179 -1.035
9.3845997 1.5822001 -0.92129999
9.3814001 1.5872 -0.9271
9.3578997 1.5880001 -0.9989
9.3732004 1.5871 -0.93260002
9.3572998 1.5821 -1.0075001
9.3719997 1.5693001 -1.0326999
9.3778 1.5844001 -0.9267
9.3655996 1.5695 -1.0278
9.3551998 1.5723 -1.0146
9.3676004 1.5885 -0.93959999
9.3542995 1.5884 -0.96719998
9.3720999 1.5789 -0.92610002
9.3813 1.5817 -0.92250001
9.3540001 1.5838 -0.99809998
9.3648005 1.5379 -1.0346
9.3868999 1.579 -0.9181
9.3607998 1.5929 -0.95889997
9.3556004 1.5899 -0.96740001
9.3739004 1.5144 -1.0349
9.3744001 1.5183001 -1.0368
9.3617001 1.5908999 -1.0009
9.3718004 1.5856 -0.93220001
9.3563004 1.5908999 -0.98400003
9.3597002 1.5883 -1.0021
9.3691998 1.5628 -1.0337
9.3596001 1.5813 -1.012
9.3668003 1.5838 -0.935
9.3650999 1.5915 -0.94730002
9.3783998 1.5812 -0.92369998
9.3719997 1.5915 -0.93889999
9.3536997 1.5872999 -0.96530002
9.3692999 1.5784 -1.025
9.3774996 1.5714999 -0.91799998
9.3593998 1.5767 -1.0164
9.3558998 1.5795 -1.0085
9.3646002 1.5727 -1.025
9.3694 1.5568 -1.0358
9.3620996 1.5604 -1.029
9.3801003 1.5882 -0.92879999
9.3558998 1.5807 -1.007
9.3627005 1.5773 -1.0197001
9.3627996 1.5806 -1.0168
9.3675003 1.5286 -1.0354
9.3801003 1.595 -0.93669999
9.3625002 1.5724 -1.0232
9.3572998 1.5923001 -0.97180003
9.3583002 1.5903 -0.99449998
9.3720999 1.5167 -1.0348001
9.3548002 1.5897 -0.9806
9.3589001 1.5892 -0.95420003
9.3521004 1.5755 -1.0065
9.3562002 1.59 -0.98820001
9.3555002 1.584 -1.0013
9.3730001 1.5336 -1.0397
9.3493996 1.5726 -1.0044
9.3628998 1.5911 -0.9501
9.3675003 1.554 -1.0352
9.3535004 1.5883 -0.97320002
9.3698997 1.5532 -1.0369999
9.3569002 1.591 -0.98710001
9.3621998 1.5700999 -1.0244
9.3536997 1.5746 -1.0103
9.3790998 1.5858001 -0.9271
9.3563004 1.5865 -0.99839997
9.3596001 1.5883 -0.95090002
9.3662004 1.5813 -0.93309999
9.3786001 1.5693001 -0.9163
9.3534002 1.5883 -0.97619998
9.3573999 1.5752 -1.0152
9.3699999 1.5214 -1.0352
9.3745003 1.5501 -0.91259998
9.3587999 1.5882 -0.95230001
9.3619003 1.5908999 -0.9515
9.3799 1.5826 -0.92390001
9.3626003 1.5829999 -0.93879998
9.3670998 1.5951999 -0.95120001
9.3682003 1.585 -0.93480003
9.3675003 1.5793 -0.93010002
9.3577003 1.5924 -0.98390001
9.3856001 1.6085 -0.96139997
9.3625002 1.5956 -0.96280003
9.3698997 1.5853 -0.93349999
9.3549004 1.5885 -0.96429998
9.3678999 1.5301 -1.036
9.3547001 1.5897 -0.97329998
9.3720999 1.5847 -0.93099999
9.3702002 1.5201 -1.0349
9.3620005 1.5943 -0.95969999
9.3872995 1.5732 -0.9145
9.3650999 1.527 -1.0333
9.3716002 1.5822001 -0.92909998
9.3664999 1.5847 -0.93620002
9.3790998 1.5904 -0.93169999
9.3703003 1.5545 -1.0369999
9.3608999 1.577 -1.018
9.3529997 1.5756 -1.0081
9.3577995 1.5912 -0.99019998
9.3657999 1.5791 -0.93150002
9.3626003 1.5829999 -1.0141
9.3626003 1.5628999 -1.0285
9.3771 1.5505 -0.9113
9.3590002 1.5937999 -0.96990001
9.4041996 1.469 -0.98989999
9.3521004 1.5822001 -0.9964
9.3725996 1.5218 -1.0369999
9.3717003 1.5116 -1.0322
9.3727999 1.5204999 -1.0367
9.3836002 1.5726 -0.9156
9.3844995 1.5654 -0.912
9.3639002 1.5913 -0.94870001
9.3746996 1.5885 -0.93279999
9.3536997 1.5849 -0.99510002
9.3642998 1.5608 -1.0308
9.4027996 1.4995 -0.9163
9.3648996 1.5536 -1.0334001
9.3814001 1.592 -0.93199998
9.3682003 1.5675 -1.031
9.3740997 1.585 -0.92970002
9.3779001 1.5925 -0.935
9.3844004 1.5877 -0.92589998
9.4033003 1.4938999 -0.92049998
9.3830004 1.5783 -0.9192
9.3571997 1.5879 -0.95520002
9.3624001 1.5569 -1.0305001
9.3532 1.5836 -0.99659997
9.3775997 1.5946 -0.93800002
9.3678999 1.5816 -0.93169999
9.3641996 1.5947 -0.95539999
9.3569002 1.5796 -1.0101
9.3692999 1.5735 -1.0285
9.3572998 1.5911 -0.98869997
9.3506002 1.574 -1.0053999
9.3523998 1.5871 -0.97420001
9.3701 1.5911 -0.94019997
9.3562002 1.59 -0.96439999
9.3552999 1.5455 -1.0259
9.3669004 1.5527 -1.0351
9.3697996 1.5387 -1.0382
9.3568001 1.591 -0.96600002
9.3709002 1.5558 -1.0371
9.3655996 1.5297 -1.0343
9.3587999 1.5913 -0.99330002
9.3627996 1.5819 -0.93730003
9.3578997 1.5728 -1.0179
9.3771 1.5821 -0.92510003
9.3559999 1.5908999 -0.97049999
9.3652 1.5585999 -1.0323
9.3768997 1.5773 -0.9217
9.3682003 1.5147001 -1.0312999
9.3648996 1.5470999 -1.0345
9.3829002 1.5887001 -0.92760003
9.3865004 1.5753 -0.91589999
9.3649998 1.5445 -1.0348001
9.3546 1.5897 -0.9745
9.3528996 1.5686001 -1.0143
9.3587999 1.5717 -1.0197999
9.3694 1.5163 -1.0329
9.3605003 1.5895 -0.95130002
9.3759003 1.5689 -0.91750002
9.3675003 1.5315 -1.036
9.3828001 1.5513999 -0.90890002
9.3828001 1.5712 -0.9152
9.3732996 1.5684 -0.9188
9.3611002 1.571 -1.0228
9.3725004 1.5243 -1.0377001
9.3618002 1.5555 -1.0304
9.3660002 1.5894001 -1.0103
9.3870001 1.5778 -0.91720003
9.3788004 1.5164 -1.0385
9.3717003 1.5520999 -1.0384001
9.3596001 1.5893 -0.95270002
9.3570995 1.5867 -1
9.3521004 1.5731 -1.0092
9.3767996 1.5888 -0.93150002
9.3628998 1.5267 -1.0315
9.4111996 1.4701 -0.95740002
9.4046001 1.4974 -0.91759998
9.3561001 1.5819 -1.0059
9.3578997 1.5880001 -0.95370001
9.3711996 1.5140001 -1.0331
9.3547001 1.5747 -1.0118999
9.3662004 1.5926 -0.94739997
9.4259005 1.4908 -0.92559999
9.3755999 1.5223 -1.0389
9.3656998 1.5647 -1.0304
9.368 1.5782 -0.92869997
9.3548002 1.5885 -0.98839998
9.3555002 1.5864 -0.99680001
9.3745003 1.5171 -1.0365
9.3667002 1.5731 -1.0267
9.3564997 1.5702 -1.0181
9.3537998 1.5803 -1.0038
9.3610001 1.5908 -0.95289999
9.3626003 1.5944 -0.95819998
9.3743 1.5779999 -1.0290999
9.3674002 1.5475 -1.0362999
9.3551998 1.5898 -0.96859998
9.3687 1.5841 -0.93330002
9.3556995 1.5899 -0.9867
9.3793001 1.5892 -0.93019998
9.3645 1.5572 -1.0322
9.3655996 1.5671 -1.0292
9.3799 1.5802 -0.92199999
9.3580999 1.5891 -0.95560002
9.3569002 1.5889 -0.9946
9.3497 1.5829999 -0.98409998
9.3669996 1.5576 -1.034
9.3695002 1.5818 -0.93040001
9.3670998 1.5906 -0.9429
9.4280005 1.508 -0.91369998
9.3664999 1.5563 -1.034
9.3740997 1.512 -1.034
9.3719997 1.5718 -1.0315
9.3767996 1.5125 -1.0358
9.3648005 1.5621001 -0.92210001
9.3888998 1.571 -0.91280001
9.3802996 1.5929 -0.93370003
9.3671999 1.5326999 -1.036
9.3544998 1.5885 -0.96579999
9.3673 1.5872 -0.93809998
9.3547001 1.5793 -1.0069
9.3752003 1.5793999 -1.0287
9.3563995 1.5607001 -1.0233001
9.3971004 1.4809 -1.0168999
9.3591995 1.5871 -0.94929999
9.3688002 1.5735 -0.92470002
9.3542004 1.5734 -1.0124
9.3614998 1.5817 -0.9386
9.3649998 1.5845 -0.9375
9.3528004 1.586 -0.98900002
9.4007998 1.4685 -0.98500001
9.3536997 1.5452 -1.0242
9.3532 1.5872 -0.96679997
9.375 1.5111001 -1.0341001
9.3649998 1.5924 -0.94880003
9.3729 1.5324 -1.0396
9.3705997 1.5494 -1.0382
9.3711004 1.5508 -1.0383
9.3625002 1.5375 -1.0329
9.3551998 1.5886 -0.98989999
9.3706999 1.5253 -1.0369
9.3691998 1.5864 -0.93519998
9.3684998 1.5908999 -0.94160002
9.3547001 1.5699 -1.016
9.3548002 1.5897 -0.98210001
9.3513002 1.5857 -0.97259998
9.3634996 1.5842 -0.93889999
9.3661003 1.5917 -0.94590002
9.3506002 1.581 -0.99470001
9.3697004 1.529 -1.0371
9.3671999 1.5826 -0.9332
9.3617001 1.5676 -1.0255001
9.3713999 1.5717 -0.9217
9.3741999 1.5779999 -0.92379999
9.3645 1.581 -0.93440002
9.3521004 1.5671999 -1.0142
9.3726997 1.5026 -1.0273
9.3580999 1.5798 -1.0118001
9.3613005 1.5886 -0.94809997
9.3698997 1.5773 -0.92640001
9.3522997 1.5695 -1.0128
9.3682003 1.5651 -1.0322
9.3513002 1.5821 -0.99449998
9.3557997 1.5829 -1.0039999
9.3534002 1.5675 -1.0159
9.3755999 1.5287 -1.0405
9.3542004 1.5862 -0.99370003
9.3532 1.5882 -0.9777
9.3641005 1.5788 -0.93279999
9.3715 1.5608 -1.0361
9.3663998 1.5221 -1.033
9.3729 1.5836 -0.92919999
9.3610001 1.5917 -0.99809998
9.3794003 1.5789 -0.92129999
9.3577003 1.5764 -1.0147001
9.3754997 1.521 -1.0385
9.3436003 1.5704 -0.99080002
9.3829002 1.5831 -0.92259997
9.3554001 1.569 -1.0176001
9.3653002 1.5549001 -1.0335
9.3525 1.5743999 -1.0087
9.3767996 1.5262001 -1.0405999
9.3485003 1.5816 -0.97039998
9.3641005 1.5821 -0.93589997
9.3573999 1.589 -0.95700002
9.3856001 1.5741 -0.91549999
9.3664999 1.5612 -1.0325
9.3733997 1.5484999 -1.04
9.3561001 1.5908999 -0.96899998
9.3540001 1.5757999 -1.0098
9.3626003 1.5467 -1.0328
9.3816996 1.5863 -0.92589998
9.3730001 1.5973001 -1.0061001
9.3599005 1.5927 -0.96030003
9.3580999 1.5924 -0.9659
9.3767996 1.5316 -1.0416
9.3724003 1.5107 -1.0323
9.3586998 1.5754 -1.0168999
9.3628998 1.5713 -1.0245
9.3576002 1.5258 -1.0264
9.3648996 1.5323 -1.0343
9.3632002 1.5667 -1.0274
9.3537998 1.5721 -1.013
9.4014997 1.4686 -0.98659998
9.3520002 1.5858001 -0.98589998
9.3555002 1.5876 -0.99409997
9.3726997 1.5377001 -1.04
9.368 1.5503 -1.0364
9.3526001 1.5719 -1.0113
9.3555002 1.5908 -0.97490001
9.3669996 1.5382 -1.0364
9.3513002 1.5845 -0.98760003
9.3722 1.574 -1.0304
9.3601999 1.5815001 -0.94
9.3671999 1.5159 -1.0312001
9.3573999 1.5117 -1.0195
9.3767004 1.5702 -0.91759998
9.3673 1.5233999 -1.0341001
9.3773003 1.5878 -0.93000001
9.3620005 1.5784 -1.0182
9.3564997 1.59 -0.96270001
9.3543997 1.571 -1.0148
9.3767996 1.5479 -0.91100001
9.3518 1.5812 -0.99790001
9.3591995 1.5261 -1.0281
9.3610001 1.5828 -0.9404
9.3573999 1.5868 -0.9522
9.3563995 1.59 -0.98979998
9.3656998 1.5598 -1.0324
9.3736 1.5858999 -0.93080002
9.3607998 1.5411 -1.0316
9.3532 1.5707999 -1.0132
9.3568001 1.59 -0.99129999
9.3800001 1.594 -0.93519998
9.3814001 1.5908 -0.93049997
9.3774996 1.5176001 -1.0384001
9.3570995 1.5786999 -1.0116
9.3534002 1.5883 -0.98070002
9.3646002 1.5633 -1.0302
9.3673 1.5896 -0.9411
9.3603001 1.5757 -1.0186
9.3628998 1.5957 -0.96130002
9.3813 1.5976 -0.9393
9.3697004 1.5467 -1.038
9.3633003 1.5594 -1.0306
9.3703003 1.5305001 -1.0378
9.3697004 1.5331 -1.0378
9.3622999 1.5653 -1.0273
9.3550997 1.576 -1.0114
9.3732004 1.5096999 -1.0323
9.3764 1.5148 -1.0367
9.3697996 1.5641 -1.0338
9.3563004 1.5762 -1.013
9.3927002 1.4911 -1.0278
9.3627996 1.5414 -1.0333
9.3599997 1.5872 -0.9479
9.3591995 1.5635999 -1.0251
9.3761997 1.5329 -1.0415
9.3662004 1.5707999 -1.0278
9.3650999 1.5484999 -1.0346
9.3540001 1.5373 -1.0247
9.3620005 1.5919 -0.95300001
9.3639002 1.5619 -1.0302
9.3920002 1.5703 -0.91149998
9.3736 1.5446 -1.0405
9.3772001 1.5188 -1.0387
9.3469 1.564 -1.0075999
9.3530998 1.586 -0.9623
9.3580999 1.5598 -1.0256
9.3599997 1.5649 -1.0253
9.3719997 1.5765001 -0.9242
9.3569002 1.5829999 -1.006
9.3705997 1.5595 -1.036
9.3604002 1.5463001 -1.031
9.3659 1.5894001 -0.9425
9.3528004 1.5871 -0.96829998
9.3774004 1.5678999 -0.91610003
9.3589001 1.5812 -0.94139999
9.3499002 1.5831 -0.98570001
9.3694 1.5055 -1.027
9.3576002 1.5682 -1.0209
9.3563995 1.5595 -1.0239
9.3743 1.5769 -0.92290002
9.3628998 1.5307 -1.0325
9.3697004 1.5372 -1.0382
9.3726997 1.5537 -1.0388
9.4008999 1.4958 -0.91909999
9.4303999 1.4938 -0.92430001
9.3639002 1.5559 -1.0322
9.3706999 1.5151 -1.0334001
9.3535004 1.5883 -0.98220003
9.3645 1.5776 -0.93129998
9.3718004 1.5776 -0.92510003
9.3657999 1.587 -0.93940002
9.3621998 1.5898 -0.94849998
9.3587999 1.5341001 -1.0294
9.3592997 1.5914 -0.99489999
9.3556995 1.5712 -1.0165
9.3555002 1.5375 -1.0264
9.3570004 1.5572 -1.0254
9.3551998 1.5898 -0.98509997
9.3646002 1.5892 -0.94389999
9.3534002 1.5883 -0.97170001
9.3694 1.5345 -1.0378
9.3572998 1.5776 -1.0131
9.3548002 1.5592 -1.0222
9.3627996 1.592 -0.95160002
9.3695002 1.5238 -1.0358
9.3734999 1.5767 -1.0296
9.3563004 1.5725 -1.0163
9.3586998 1.5904 -0.9569
9.3641996 1.5523 -1.0333
9.3731003 1.531 -1.0396
9.3555002 1.5908 -0.9734
9.3645 1.5880001 -0.94230002
9.3523998 1.5858999 -0.96490002
9.3566999 1.5842 -0.949
9.3483 1.5816 -0.97189999
9.3520002 1.5846 -0.99070001
9.3648005 1.5597 -0.92110002
9.3525 1.5847 -0.99229997
9.3536997 1.5781 -1.0068001
9.3690004 1.5796 -0.92879999
9.3653002 1.5498 -1.0346
9.3809004 1.5648 -0.9131
9.3817997 1.5989 -0.94090003
9.3479004 1.5772001 -0.99409997
9.4087 1.4881001 -0.92540002
9.3632002 1.5293 -1.0325
9.3608999 1.5687 -1.0242
9.3539 1.5687 -1.0159
9.3675003 1.5589 -1.0341001
9.3678999 1.577 -0.92769998
9.3643999 1.5458 -1.0344
9.3513002 1.5833 -0.99180001
9.3745003 1.5817 -0.92629999
9.3753996 1.5807 -0.9249
9.3427 1.5584 -1.0022
9.3515997 1.5684 -1.0127
9.3604002 1.5626 -1.0268
9.3481998 1.5700001 -1.0051
9.3508997 1.5704 -1.0099
9.3655005 1.5903 -0.9443
9.3484001 1.5618 -1.0118999
9.3668003 1.534 -1.036
9.3801003 1.5683 -0.9149
9.3701 1.5786 -0.9271
9.3880997 1.566 -0.91079998
9.3448 1.5718 -0.99339998
9.3668003 1.5171 -1.0315
9.3669996 1.5637 -1.0319999
9.3642998 1.5809 -1.0185
9.3522997 1.5871 -0.9727
9.3480997 1.5628999 -1.0107
9.3521004 1.587 -0.97719997
9.3695002 1.5276999 -1.0368
9.3642998 1.5855 -0.9393
9.3611002 1.5639 -1.0269001
9.3559999 1.5255001 -1.0247
9.3796997 1.5129 -1.0376
9.3709002 1.568 -0.92000002
9.375 1.584 -0.92790002
9.3550997 1.584 -0.95190001
9.3572998 1.5901 -0.99290001
9.3722 1.5707 -0.92049998
9.3666 1.5804 -0.93159997
9.3466997 1.5376 -1.0149
9.3649998 1.5801001 -0.93290001
9.3657999 1.5858001 -0.93790001
9.3620005 1.5519 -1.0316
9.3535004 1.5872999 -0.98790002
9.3731003 1.5459 -0.9127
9.3495998 1.5739 -1.0038
9.3615999 1.5615 -1.0283999
9.3648996 1.5311 -1.0342
9.3722 1.5282 -1.0386
9.3520002 1.5706 -1.0116
9.3674002 1.5261 -1.035
9.3536997 1.5883 -0.96869999
9.3706999 1.5678999 -1.0328
9.3704004 1.5441 -1.0387
9.3627996 1.569 -1.0259
9.3505001 1.5716 -1.0081
9.3603001 1.572 -1.0215
9.3652 1.5835 -0.93599999
9.3767996 1.5091 -1.0342
9.3627996 1.5545 -1.0317
9.3834 1.5689 -0.91369998
9.3726997 1.5362999 -1.04
9.3759003 1.516 -1.0369999
9.3544998 1.5676 -1.0175
9.3597002 1.5673 -1.0238
9.3817997 1.5897 -0.92900002
9.3564997 1.5865999 -0.95359999
9.3480997 1.5816 -0.97640002
9.4057999 1.4729 -0.94880003
9.3632002 1.5153 -1.0276999
9.3551998 1.5664999 -1.0191
9.3719997 1.5572 -1.0376
9.3704004 1.5068001 -1.0287
9.3755999 1.5017999 -1.0288
9.3500996 1.5831 -0.98720002
9.3509998 1.581 -0.99629998
9.3535004 1.5883 -0.9702
9.3879995 1.5884 -0.92470002
9.3596001 1.5915 -0.95730001
9.3621998 1.5454 -1.0326999
9.3870001 1.5695 -0.91259998
9.349 1.5700999 -1.0067
9.3732996 1.5257 -1.0387
9.3730001 1.5803 -0.92619997
9.3511 1.5857 -0.9738
9.3528996 1.5847 -0.99379998
9.3429003 1.5434999 -1.008
9.3846998 1.5868 -0.92470002
9.3464003 1.5769 -0.9641
9.368 1.5247999 -1.0351
9.3591995 1.5926 -0.96179998
9.3661003 1.5623 -1.0319
9.3775997 1.5115 -1.0359
9.3709002 1.5656 -1.034
9.3727999 1.5585999 -1.0377001
9.3608999 1.5304 -1.0308
9.3577003 1.5549001 -1.0269001
9.3760004 1.5725 -0.91909999
9.3765001 1.5854 -0.92809999
9.3627005 1.5278 -1.0318
9.3580999 1.5741 -1.0174
9.4049997 1.4888 -0.92479998
9.3846998 1.6004 -0.94120002
9.3508997 1.5753 -1.0049
9.3799 1.5038 -1.0326999
9.3584003 1.5925 -0.96439999
9.3708 1.5455 -0.91399997
9.3813 1.5698 -0.91500002
9.4047003 1.4691 -0.99150002
9.3809004 1.5624 -0.91219997
9.3736 1.5061001 -1.0305001
9.3761997 1.5197999 -1.0386
9.3460999 1.5709 -0.95380002
9.3606005 1.5477 -1.0311
9.3580999 1.5869 -0.95069999
9.3521004 1.587 -0.97869998
9.3717003 1.5632 -1.0355
9.3767996 1.576 -0.92070001
9.3557997 1.5785 -1.01
9.3513002 1.5857 -0.97079998
9.3599997 1.5424 -0.92189997
9.3552999 1.5736001 -1.0141
9.3759003 1.5397 -1.0419
9.3579998 1.5512 -1.0281
9.3938999 1.4923 -1.0294
9.3599997 1.5565 -1.0287
9.3486004 1.5642 -1.0108
9.3483 1.5772001 -0.99559999
9.3631001 1.5642999 -1.0286
9.3535995 1.5883 -0.98369998
9.3803997 1.572 -0.91649997
9.3671999 1.5395 -1.0367
9.3652 1.5257 -1.0333
9.3611002 1.5896 -0.94989997
9.3522997 1.5858999 -0.9878
9.3719997 1.5621001 -1.0361
9.3760996 1.5369 -1.0419
9.3566999 1.5878 -0.99730003
9.3577995 1.5901999 -0.95859998
9.3547001 1.5771 -1.0098
9.3598003 1.5601 -1.0273
9.3470001 1.5757999 -0.99400002
9.3622999 1.5333 -1.0325
9.3708 1.5799 -0.92750001
9.3530998 1.5882 -0.97920001
9.3654003 1.5822999 -0.93449998
9.3537998 1.5825 -1.0008
9.3755999 1.5101 -1.0341001
9.3604002 1.5437 -1.0312999
9.3793001 1.5153 -1.0385
9.3786001 1.5106 -1.036
9.3514004 1.5717 -1.0096999
9.3548002 1.5897 -0.98360002
9.3495998 1.5644 -1.0124
9.3536997 1.5872999 -0.96380001
9.3607998 1.5872999 -0.9465
9.3787003 1.5633 -0.91350001
9.3675003 1.5196 -1.0331
9.3780003 1.5022 -1.0306
9.3607998 1.5263 -1.0298001
9.3530998 1.5650001 -1.0173
9.3577995 1.5912 -0.96160001
9.3704996 1.5738 -0.92339998
9.3771 1.5238 -1.0403
9.3558998 1.5773 -1.0115
9.3548002 1.5817 -1.0042
9.3585997 1.5857 -0.94770002
9.3570004 1.5338 -1.0276999
9.3834 1.5617 -0.9109
9.3741999 1.5756 -0.92199999
9.3476 1.5677 -1.0062
9.3516998 1.5766 -1.005
9.3546 1.5863 -0.99519998
9.3430996 1.5703 -0.98930001
9.3718004 1.5496 -0.9138
9.3837004 1.576 -0.91720003
9.3797998 1.5707 -0.91610003
9.3500004 1.5842 -0.97240001
9.3769999 1.5033 -1.0308
9.3646002 1.5694 -0.92549998
9.3472996 1.5698 -1.0035
9.3697996 1.5265 -1.0368
9.3563995 1.5559 -1.0253
9.3555002 1.5908 -0.97189999
9.3675003 1.572 -1.0283
9.3726997 1.5472 -1.0398999
9.3666 1.5731 -0.926
9.3558998 1.5678999 -1.0192
9.3725996 1.5741 -0.92210001
9.3590002 1.5684 -1.0225
9.3558998 1.5841 -0.95020002
9.3722 1.5294 -1.0389
9.3795996 1.5741 -0.91799998
9.3550997 1.5362999 -1.026
9.375 1.5745 -0.92079997
9.3708 1.5093 -1.0306
9.3804998 1.5417 -0.90880001
9.3504 1.5832 -0.98869997
9.3544998 1.5874 -0.96090001
9.3746996 1.5029 -1.0290999
9.3717003 1.5128 -1.0331
9.3697996 1.5749 -0.92460001
9.3577995 1.5609 -1.025
9.3870001 1.5416 -0.90640002
9.3638 1.5704 -1.0261
9.3625002 1.5402 -1.0332
9.3682003 1.5806 -0.93019998
9.3556995 1.5581 -1.0238
9.3594999 1.5501 -1.0298001
9.3627996 1.5494 -1.0328
9.3577995 1.5245 -1.0264
9.3552999 1.539 -1.0264
9.3625002 1.5582 -0.9224
9.3628998 1.5865 -0.94220001
9.3505001 1.5622 -1.0152
9.3753996 1.5462 -0.91140002
9.3428001 1.5422 -1.008
9.3841 1.5628999 -0.91100001
9.3629999 1.5254 -1.0315
9.3501997 1.5785 -0.9989
9.3677998 1.5745 -0.92589998
9.3520002 1.587 -0.97570002
9.3782997 1.4999 -1.0290999
9.3704004 1.5189 -1.0349
9.3800001 1.4924001 -1.0233999
9.3511 1.5844001 -0.96499997
9.3586998 1.5925 -0.96289998
9.3647003 1.5716 -1.0262001
9.3544998 1.5805 -1.0053999
9.3835001 1.5422 -0.90759999
9.3724003 1.5048 -1.0289
9.3823004 1.4984 -1.0301
9.3621998 1.5532 -1.0316
9.3649998 1.5156 -1.0295
9.3740997 1.5792 -0.92449999
9.3472004 1.5759 -0.95819998
9.3590002 1.5563 -0.92500001
9.3624001 1.5346 -1.0328
9.3712997 1.5058 -1.0288
9.3663998 1.5624 -0.92070001
9.3638 1.568 -0.92540002
9.3584003 1.5422 -0.92330003
9.3444004 1.5635 -1.0028
9.3583002 1.5622 -1.025
9.3606997 1.5803 -1.0151
9.3462 1.5745 -0.9939
9.3521004 1.587 -0.98019999
9.3549995 1.5886 -0.96280003
9.3627005 1.5441 -1.0333
9.3536997 1.5663 -1.0174
9.3759003 1.5628 -0.91469997
9.3730001 1.5193 -1.0367
9.3870001 1.5427999 -0.90640002
9.3726997 1.5729001 -1.0316
9.3458996 1.5638 -1.006
9.3718004 1.5752 -0.92330003
9.3541002 1.5884 -0.98680001
9.3994999 1.4683 -0.98339999
9.3502998 1.5843 -0.96950001
9.368 1.5185 -1.0331
9.3803997 1.5084 -1.0358
9.3532 1.559 -1.0204999
9.3729 1.5549001 -1.0388
9.3703003 1.5044 -1.0271
9.3762999 1.5784 -0.92250001
9.3734999 1.5576 -0.91439998
9.3619003 1.5839 -0.94019997
9.3530998 1.5824 -0.99949998
9.3551998 1.5851001 -0.95340002
9.3697996 1.5103 -1.0305001
9.3565998 1.5457 -1.0276
9.3786001 1.5729001 -0.91780001
9.3667002 1.5462 -1.0362
9.3402996 1.5664999 -0.97839999
9.3628998 1.5481 -1.0331
9.3591003 1.5096 -1.0203
9.3895998 1.4916 -1.0274
9.3787003 1.5584 -0.91189998
9.3803997 1.5405 -0.90880001
9.3508997 1.5856 -0.97860003
9.3594999 1.5552 -1.0287
9.3472996 1.5616 -1.0103
9.3605003 1.586 -0.94489998
9.3674002 1.5686001 -0.92269999
9.3493004 1.562 -1.0135
9.3570004 1.5786999 -0.9411
9.3613997 1.5504 -1.0315
9.3511 1.5526 -0.93290001
9.3597002 1.5825 -0.94150001
9.3715 1.5693001 -0.92009997
9.3565998 1.59 -0.96149999
9.3793001 1.5203 -1.0404
9.3536997 1.5398999 -1.0247
9.3635998 1.5922 -0.95020002
9.3747997 1.5247 -1.0394
9.3627005 1.5761 -0.93169999
9.3755999 1.5341001 -1.0415
9.3507004 1.5832 -0.9903
9.3507996 1.5765001 -1.0034
9.3696003 1.5761 -0.92549998
9.3506002 1.582 -0.9932
9.3751001 1.5396 -0.9113
9.3521996 1.587 -0.98180002
9.3619003 1.5796 -0.93559998
9.3758001 1.5382 -1.0419
9.3556004 1.5864 -0.95499998
9.3518 1.5648 -1.0157
9.3867998 1.5547 -0.90780002
9.3494997 1.5784 -0.99730003
9.3542995 1.5838 -0.95300001
9.3641005 1.5867 -0.94080001
9.3515997 1.5221 -1.0182
9.3739996 1.5086 -1.0324
9.3488998 1.5783 -0.9957
9.3850002 1.5642999 -0.91109997
9.3872004 1.5026 -0.91759998
9.3634996 1.5508 -1.0332
9.3552999 1.5190001 -1.0215
9.3802996 1.5142 -1.0386
9.3500996 1.5233001 -1.0166
9.3451004 1.5755 -0.98650002
9.3542995 1.5652 -1.0189
9.3646002 1.539 -1.0349
9.3521996 1.5835 -0.99489999
9.3514004 1.5845 -0.9892
9.3472004 1.5804 -0.97780001
9.3606005 1.5675 -0.92809999
9.3725004 1.5752 -1.0301
9.3534002 1.5697 -1.0147001
9.4021997 1.4905 -0.92330003
9.3557997 1.5876 -0.9957
9.3615999 1.5862 -0.94349998
9.3536997 1.5883 -0.98519999
9.3647003 1.5417 -1.035
9.3748999 1.5005 -1.0275
9.3498001 1.5809 -0.99309999
9.3771 1.5606 -0.91329998
9.3572998 1.5298001 -1.0274
9.3515997 1.5624 -1.0168
9.3566999 1.5854 -0.95060003
9.3758001 1.4995 -1.0273
9.3591003 1.58 -1.0134
9.3604002 1.5343 -1.0311
9.3915997 1.4822 -1.0172
9.3576002 1.5498 -1.0281
9.3535995 1.5614001 -1.02
9.3481998 1.5724 -1.0028
9.3816996 1.5074 -1.0359
9.3484001 1.5773 -0.95679998
9.3597002 1.5515 -1.0298001
9.3857002 1.5892 -0.92629999
9.3685999 1.5225 -0.91790003
9.3541002 1.5579 -1.0221
9.3499002 1.5750999 -1.0033
9.3509998 1.5857 -0.97979999
9.3598003 1.5915 -0.99650002
9.3500996 1.5843 -0.97100002
9.3555002 1.5876 -0.958
9.4039001 1.4714 -0.95279998
9.3522997 1.566 -1.0157
9.3453999 1.5707 -0.95520002
9.3535004 1.5769 -1.0082
9.3733997 1.5458 -1.0405
9.3716002 1.5082 -1.0306
9.3508997 1.567 -1.0129
9.3513002 1.5857 -0.96960002
9.3536997 1.5387 -1.0247
9.3514004 1.5845 -0.96359998
9.3799 1.5611 -0.91210002
9.3523998 1.5871 -0.96969998
9.3498001 1.5842 -0.97839999
9.4064999 1.5057 -0.91189998
9.3629999 1.5774 -0.93239999
9.3773003 1.5749 -0.91960001
9.3466997 1.5779001 -0.98799998
9.3792 1.5483 -0.90969998
9.3757 1.5383 -0.91100001
9.3690004 1.5713 -0.92290002
9.3836002 1.4907 -1.0238
9.3815002 1.5734 -0.91659999
9.3491001 1.569 -1.0082
9.3561001 1.5774 -0.94099998
9.3451004 1.5719 -0.99489999
9.3816004 1.5351 -0.90850002
9.3641005 1.5763 -0.93040001
9.3577003 1.5798 -0.94120002
9.3535995 1.536 -1.0244
9.3587999 1.5914 -0.9587
9.3507004 1.5844001 -0.98610002
9.3816004 1.5589 -0.91070002
9.375 1.5638 -0.91549999
9.3456001 1.5732 -0.99440002
9.3689003 1.5112 -1.0304
9.3697004 1.5398999 -1.0385
9.3604002 1.5398 -1.0315
9.3740997 1.5697 -0.91860002
9.3733997 1.5721 -0.92030001
9.3740997 1.5132 -1.0349
9.3775997 1.5642999 -0.91430002
9.3870001 1.4891 -1.0238
9.3612003 1.5688 -0.92820001
9.3516998 1.5502 -1.0214
9.3492002 1.5498 -1.0181
9.3670998 1.5209 -1.0334001
9.3811998 1.4903001 -1.022
9.3836002 1.5448999 -0.90759999
9.3725004 1.5646 -1.0355999
9.3526001 1.5871 -0.98479998
9.3682003 1.5627 -0.91939998
9.3739996 1.5499001 -1.0404
9.3783998 1.5656 -0.91439998
9.3851004 1.5595 -0.9095
9.3492002 1.5762 -1.0002
9.3659 1.5742 -0.92720002
9.3592997 1.5247999 -1.0281
9.3528004 1.5626 -1.0184
9.3520002 1.5515 -1.0215
9.3901997 1.4895999 -1.0257
9.4027004 1.4676 -0.97890002
9.3645 1.535 -1.0346
9.3782997 1.5227 -1.0407
9.3539 1.5872999 -0.96240002
9.3563995 1.5888 -0.95840001
9.3498001 1.5842 -0.97390002
9.3465996 1.5686001 -1.0034
9.3486004 1.5737 -1.0022
9.3697996 1.5666 -0.9199
9.3525 1.5801001 -1.0021
9.3758001 1.5369 -0.91100001
9.3598003 1.5686001 -0.92949998
9.3521996 1.5612 -1.0183001
9.3684998 1.5676 -0.92129999
9.3758001 1.5065 -1.0323
9.3608999 1.559 -1.0289
9.3666 1.5367 -1.0362999
9.3865995 1.556 -0.90810001
9.3611002 1.5757999 -0.93309999
9.3741999 1.5487 -0.91219997
9.3600998 1.5915999 -0.9558
9.3746004 1.5527 -0.91259998
9.3464003 1.5779001 -0.98640001
9.3556995 1.5654 -1.0206
9.3671999 1.5436 -1.0368
9.3646002 1.523 -1.0322
9.3824997 1.5042 -1.0344
9.3568001 1.5714 -1.0181
9.3634005 1.5103 -1.0253
9.3716002 1.5470999 -0.91350001
9.3472004 1.5771 -0.99250001
9.3558998 1.5853 -0.95200002
9.342 1.5433 -1.0064
9.3741999 1.5732 -0.92040002
9.3441 1.5742 -0.98460001
9.3514996 1.5786999 -1.002
9.3690004 1.5175 -1.0335
9.3470001 1.5628 -1.0091
9.3767004 1.5737 -0.9192
9.3563995 1.5738 -1.0157
9.3575001 1.5855 -0.94910002
9.3823004 1.577 -0.91829997
9.3779001 1.5466 -0.91009998
9.3488998 1.5631 -1.0123
9.3662996 1.5062 -1.0252
9.3627996 1.5853 -0.94059998
9.3522997 1.5635999 -1.0172
9.3598003 1.5148 -1.0244
9.3580999 1.5232 -1.0264
9.3515997 1.5289 -1.0207
9.3497 1.5702 -1.0082999
9.3547001 1.5441999 -1.0258
9.3552999 1.5886 -0.96130002
9.3809996 1.5391001 -0.90850002
9.3564997 1.5619 -1.0233001
9.3465004 1.5791 -0.97170001
9.3718996 1.5349 -1.0396
9.3824997 1.483 -1.0132999
9.3662996 1.5599999 -0.91979998
9.3562002 1.5642999 -1.0218
9.3584995 1.5407 -1.0298001
9.3557997 1.5887001 -0.95990002
9.3465996 1.5746 -0.99540001
9.3487997 1.5829 -0.97649997
9.3515997 1.5834 -0.99339998
9.3613997 1.5427001 -0.92049998
9.3755999 1.4819 -1.005
9.3806 1.4935 -1.025
9.3610001 1.529 -1.0308
9.3849001 1.5582 -0.90920001
9.3607998 1.5917 -0.9544
9.3674002 1.5650001 -0.92089999
9.3625002 1.5427999 -1.0333
9.3558998 1.5115 -1.0179
9.3739004 1.5474 -0.91219997
9.3702002 1.563 -0.9181
9.3550997 1.5569 -1.0237
9.3746004 1.5075001 -1.0322
9.3525 1.5768 -1.0066
9.3606005 1.5491 -1.0311
9.3843002 1.4833 -1.015
9.3640003 1.5217 -1.0312999
9.3557997 1.5546 -1.0252
9.3611002 1.5615 -0.92470002
9.3597002 1.5235 -1.0281
9.3520002 1.545 -1.0226001
9.3485003 1.5761 -0.99860001
9.3830996 1.5554 -0.90920001
9.3612003 1.5804 -0.93709999
9.3477001 1.5711 -1.0033
9.3865004 1.5228 -0.90880001
9.3863001 1.4711 -0.9709
9.3627996 1.5594 -0.9224
9.3610001 1.571 -0.92970002
9.3474998 1.5377001 -1.0165
9.3533001 1.5517 -1.0231
9.3952999 1.47 -0.99080002
9.3603001 1.5098 -1.0219001
9.3659 1.566 -0.92250001
9.3766003 1.5666 -0.91570002
9.3584003 1.5118999 -1.0211999
9.3642998 1.5362999 -1.0346
9.3521004 1.587 -0.97119999
9.3564997 1.5431 -1.0278
9.3667002 1.5354 -1.0362999
9.3900003 1.503 -0.9163
9.3703003 1.5228 -0.91659999
9.3775997 1.5619 -0.91339999
9.3450003 1.5635999 -1.0044
9.3718004 1.5728 -0.9217
9.3785 1.5069 -1.0341001
9.3676996 1.5489 -1.0367
9.3800001 1.5536 -0.91009998
9.3603001 1.5316 -1.0307
9.3476 1.576 -0.95670003
9.3621998 1.5319 -1.0324
9.3771 1.5009 -1.0293
9.3628998 1.5899 -0.94700003
9.3841 1.5383 -0.9073
9.3559999 1.5908999 -0.98549998
9.3723001 1.567 -1.0345
9.3554001 1.5308 -1.0257
9.3732996 1.5599 -1.0378
9.3513002 1.5574 -1.0188
9.375 1.5299 -1.0407
9.4006004 1.4924001 -0.9217
9.3692999 1.5358 -1.0381
9.3632002 1.5798 -0.93419999
9.3898001 1.5008 -0.91780001
9.3505001 1.5646 -1.0140001
9.3858995 1.5292 -0.90759999
9.3739004 1.5661 -0.917
9.3498001 1.5608 -1.0151
9.3929005 1.4697 -0.96679997
9.3697996 1.5809 -0.9289
9.3915997 1.4844 -1.0203
9.3732004 1.5378 -0.91229999
9.3478003 1.5772001 -0.95829999
9.3723001 1.5269001 -1.0386
9.3697996 1.5426 -1.0386
9.3435001 1.5436 -1.0096
9.3619003 1.5887001 -0.94660002
9.3583002 1.5729001 -0.93400002
9.3593998 1.5858999 -0.94630003
9.3583002 1.5182 -1.0246
9.3650999 1.5219001 -0.9206
9.3779001 1.4823 -1.0082999
9.3759003 1.5043 -1.031
9.3471003 1.5804 -0.9763
9.3696003 1.5413001 -1.0385
9.3578997 1.5561 -1.027
9.3604002 1.5699 -0.9296
9.3603001 1.5578001 -1.0288
9.3580999 1.546 -1.0292
9.3834 1.5148 -0.91259998
9.3802996 1.512 -1.0377001
9.3730001 1.5431 -1.0405
9.3825998 1.5746 -0.91670001
9.3683996 1.5135 -1.0312999
9.3592997 1.5612 -1.0266
9.3509998 1.5634 -1.0154999
9.3473997 1.5723 -1.0012
9.3654003 1.5244 -1.0333
9.3768997 1.5544 -0.91170001
9.3465996 1.5675 -1.0046
9.3587999 1.5659 -1.0239
9.3942003 1.4699 -0.9892
9.3758001 1.5579 -0.9131
9.3584003 1.5574 -1.0271
9.3612003 1.5771 -0.93400002
9.3774996 1.5412 -0.91000003
9.3744001 1.5051 -1.0306
9.3474998 1.5793 -0.98809999
9.3497 1.5842 -0.97539997
9.3842001 1.5703 -0.9138
9.3766003 1.4821 -1.0066
9.3456001 1.5743999 -0.99229997
9.3733997 1.4992 -1.0255001
9.3506002 1.5843 -0.96649998
9.3569002 1.5703 -0.93379998
9.3599997 1.5528001 -1.0299
9.3437004 1.5729001 -0.9867
9.3550997 1.5402 -1.0264
9.3484001 1.5216 -1.0132999
9.3844995 1.5251 -0.90890002
9.3910999 1.4865 -1.0227
9.3753004 1.5274 -1.0404
9.3626003 1.5807 -0.9357
9.3507004 1.5786 -1.0003999
9.3715 1.5657001 -0.91829997
9.3566999 1.5535001 -1.0265
9.3807001 1.5003 -1.0309
9.3882999 1.535 -0.90609998
9.3583002 1.5145 -1.0227
9.3463001 1.5615 -1.0087
9.4039001 1.4701999 -0.95639998
9.3375998 1.5465 -0.9928
9.3856001 1.5519 -0.90759999
9.3543997 1.585 -0.95480001
9.3472996 1.5687 -1.005
9.3792 1.4825 -1.0099
9.3830996 1.5541 -0.90890002
9.3460999 1.5721 -0.99800003
9.3709002 1.5571001 -0.91570002
9.3629999 1.5889 -0.94520003
9.3589001 1.5696 -0.93099999
9.3570995 1.5911 -0.963
9.3502998 1.55 -1.0197001
9.3661003 1.5003 -1.0203
9.3649998 1.5106 -1.027
9.3582001 1.5845 -0.94620001
9.3808002 1.5219001 -0.91119999
9.3493004 1.5285 -1.0175
9.3565998 1.5324 -1.0273
9.3627996 1.5877 -0.94370002
9.3598003 1.545 -1.0309
9.3597002 1.5121 -1.0228
9.3570004 1.5901 -0.95999998
9.3662004 1.5697 -0.92409998
9.3566999 1.5377001 -1.028
9.3436003 1.5634 -1.0012
9.3640003 1.5901 -0.94559997
9.3944998 1.4871 -0.92830002
9.3471003 1.5804 -0.97479999
9.3620996 1.5784 -0.93409997
9.3480997 1.5688 -1.0066
9.3867998 1.4814 -1.0137
9.3797998 1.4747 -0.96280003
9.3656998 1.5766 -0.92900002
9.3717003 1.5812 -0.92760003
9.3815002 1.511 -1.0378
9.3566999 1.5404 -1.0281
9.3466997 1.5721999 -0.9533
9.3743 1.5674 -0.91729999
9.3627005 1.5125999 -1.0261
9.3605003 1.5836999 -0.94160002
9.3825998 1.526 -0.90939999
9.3551998 1.5335 -1.026
9.3570995 1.5633 -1.0233999
9.3731003 1.5014 -1.0271
9.3781004 1.5214 -1.0403
9.3683996 1.5438 -0.9152
9.3871002 1.5003999 -0.91900003
9.3614998 1.5556 -0.92229998
9.3394003 1.5639 -0.9813
9.3915005 1.4811 -1.0157
9.3629999 1.5057 -1.0218
9.3539 1.5305001 -1.024
9.3603001 1.5424 -1.0315
9.4243002 1.4897 -0.92570001
9.3835001 1.5102 -0.91460001
9.3643999 1.5405 -1.0349
9.3717003 1.5483 -0.91350001
9.3802004 1.5181 -1.0402
9.3478003 1.5815001 -0.97790003
9.3726997 1.5403 -1.0404
9.3516998 1.5858001 -0.9666
9.3838997 1.5396 -0.9073
9.3473997 1.5389 -1.0165
9.3870001 1.5469 -0.90649998
9.3643999 1.5167 -1.0297
9.3683996 1.5516 -1.0368
9.3575001 1.581 -0.94270003
9.3508997 1.561 -1.0167
9.3457003 1.5347 -1.0132999
9.3508997 1.5247 -1.0185
9.3699999 1.5703 -0.92150003
9.3811998 1.5661 -0.91320002
9.3509998 1.5461 -1.0213
9.3879004 1.4904 -1.0257
9.3622999 1.5387 -1.0332
9.3834 1.5223 -0.91000003
9.3564997 1.5796 -0.94260001
9.3396997 1.5652 -0.97860003
9.3487997 1.5829 -0.97350001
9.3640003 1.5584 -0.921
9.3811998 1.4816 -1.0101
9.3801003 1.5754 -0.91829997
9.3442001 1.5425 -1.0111001
9.3710003 1.5559 -0.91530001
9.3898001 1.5233001 -0.90759999
9.3675003 1.5099 -1.0287
9.3585997 1.5208 -1.0261
9.3499002 1.5819 -0.9914
9.3493004 1.5218 -1.0149
9.3814001 1.5637 -0.91219997
9.3748999 1.5614001 -0.91460001
9.3627005 1.5691 -0.92680001
9.3846998 1.5667 -0.912
9.3732996 1.4935 -1.02
9.3563004 1.5667 -1.0207
9.3781996 1.4931 -1.0232
9.3437996 1.5741 -0.9831
9.3727999 1.5549999 -0.91399997
9.3874998 1.5388 -0.90609998
9.3544998 1.5826 -1.0027
9.3718996 1.5597 -0.91579998
9.3429003 1.5408 -1.0086
9.3682003 1.5041 -1.0254
9.3797998 1.5549001 -0.91039997
9.3575001 1.5219001 -1.0254
9.3497 1.5459 -1.0196
9.3437004 1.5409 -1.0102
9.3586998 1.5301 -1.029
9.3887997 1.4871 -1.0225
9.3860998 1.5682 -0.91210002
9.3572998 1.5714999 -0.93409997
9.3930998 1.4722 -0.9551
9.3565998 1.591 -0.96450001
9.3436003 1.5704 -0.99229997
9.3597002 1.5756 -0.93440002
9.3576002 1.5694 -0.93229997
9.3513002 1.5857 -0.98430002
9.3483 1.5816 -0.98400003
9.3873997 1.5402 -0.90609998
9.3936996 1.5106 -0.91109997
9.3646002 1.5728 -0.92729998
9.3664999 1.5038 -1.0237
9.3435001 1.574 -0.98000002
9.3671999 1.5051 -1.0253
9.3453999 1.5613 -1.0071
9.3881998 1.476 -1.0044
9.3856001 1.5608 -0.90960002
9.3484001 1.5712 -1.0049
9.3586998 1.58 -0.93980002
9.3584003 1.5754 -0.93580002
9.3584003 1.5538 -1.0282
9.3460999 1.5662 -1.0048
9.3568001 1.531 -1.0273
9.3485003 1.5816 -0.98549998
9.3655996 1.5683 -0.92379999
9.3795996 1.5013 -1.0311
9.3605003 1.5275 -1.0301
9.3562002 1.5444 -1.0275
9.3894997 1.4716001 -0.9921
9.3541002 1.515 -1.018
9.3548002 1.5875 -0.9594
9.3800001 1.5523 -0.90979999
9.3606997 1.5663 -1.0257
9.3824997 1.4928 -1.0255001
9.3584995 1.5717 -0.93279999
9.3434 1.5423 -1.0096
9.3438997 1.533 -1.0096999
9.3816004 1.5339 -0.90850002
9.3738003 1.5297 -0.91280001
9.3481998 1.5782 -0.99409997
9.3481998 1.5204 -1.0124
9.3520002 1.5812 -0.99940002
9.3807001 1.4827 -1.0116
9.349 1.5829 -0.97049999
9.3761997 1.4829 -1.0078
9.3514004 1.5857 -0.96780002
9.3816004 1.5246 -0.91009998
9.3888998 1.4816999 -1.0154001
9.3667002 1.5051 -0.92799997
9.3673 1.5448999 -1.0369
9.3462 1.559 -0.94279999
9.3790998 1.5764 -0.91939998
9.3781004 1.5386 -0.90969998
9.3859997 1.5106 -0.91339999
9.3548002 1.5863 -0.95639998
9.3498001 1.5763 -1.0017999
9.3603001 1.5383 -1.0315
9.3691998 1.5124 -1.0314
9.3550997 1.569 -0.93510002
9.3685999 1.564 -0.91949999
9.3844004 1.4754 -0.99949998
9.3464003 1.5709 -0.95230001
9.3429003 1.5727 -0.98089999
9.3696003 1.5725 -0.92299998
9.3471003 1.5804 -0.97930002
9.3674002 1.5757 -0.92680001
9.3862 1.5718 -0.91369998
9.3423996 1.5632 -0.99809998
9.3495998 1.5796 -0.99580002
9.3625002 1.5202 -0.92330003
9.3733997 1.5039001 -1.0292
9.3502998 1.5843 -0.96799999
9.3548002 1.5616 -1.0216
9.3502998 1.5219001 -1.0165
9.3683996 1.5065 -1.0273
9.3578997 1.5447 -1.0292
9.3724003 1.5072 -1.0307
9.3678999 1.5699 -0.9228
9.3563004 1.5692 -0.93370003
9.3444996 1.5671999 -0.99989998
9.3802996 1.5026 -1.0324
9.3836002 1.5476 -0.9077
9.3549004 1.5772001 -0.94239998
9.3564997 1.5192 -1.0232
9.3815002 1.5577 -0.91030002
9.3608999 1.525 -1.0298001
9.3455 1.572 -0.99650002
9.3465004 1.5361 -1.0149
9.3781996 1.5373 -0.90969998
9.3442001 1.5742 -0.98610002
9.3915005 1.4852999 -1.0215
9.3723001 1.5634 -0.91680002
9.3836002 1.4719 -0.98119998
9.3566999 1.5484 -1.0276
9.3625002 1.5617 -0.92339998
9.3465996 1.5349 -1.0149
9.3570004 1.5584 -1.0254
9.3572998 1.5561 -0.92640001
9.3767004 1.5136 -1.0367
9.3760004 1.5342 -0.91100001
9.3527002 1.5871 -0.98629999
9.3521004 1.5527 -1.0215
9.3543997 1.5279 -1.024
9.3789997 1.4899 -1.0203
9.3501997 1.5797 -0.99739999
9.3470001 1.5746 -0.99699998
9.3792 1.5095 -1.036
9.3544998 1.5555 -1.0236
9.3582001 1.5434 -0.92330003
9.3649998 1.5192 -1.0312999
9.3944998 1.4793 -1.0142
9.3769999 1.4895999 -1.0185
9.3814001 1.5122 -0.9145
9.3624001 1.5712 -0.92830002
9.3822002 1.5675 -0.91329998
9.3459997 1.5626 -1.0075001
9.3401003 1.5664999 -0.97689998
9.3487997 1.5654 -1.0108
9.3599005 1.572 -0.9314
9.3570995 1.5656 -1.0223
9.3459997 1.5778 -0.9849
9.3477001 1.5781 -0.99260002
9.3573999 1.5844001 -0.94730002
9.3578997 1.5789 -0.93970001
9.3625002 1.5227 -1.0305001
9.3857002 1.4766999 -1.0041
9.3486996 1.5829 -0.97500002
9.3845997 1.4931 -1.0269001
9.4040003 1.5041 -0.91280001
9.3694 1.5467 -0.91469997
9.3808002 1.4739 -0.96439999
9.3786001 1.5346 -0.90969998
9.3546 1.5113 -1.0161999
9.3505001 1.5512 -1.0197999
9.3845997 1.4811 -1.0118999
9.3732996 1.5563 -1.0389
9.3486996 1.5829 -0.97799999
9.3570995 1.5206 -1.0245
9.3443003 1.5754 -0.98159999
9.3829002 1.4938999 -1.0268
9.3492002 1.5774 -0.99870002
9.3564997 1.5470001 -1.0276
9.3656998 1.5587 -0.91970003
9.3563004 1.5829999 -0.9472
9.3434 1.574 -0.97850001
9.3530998 1.586 -0.96079999
9.3886995 1.5649 -0.90990001
9.3867998 1.5454 -0.90640002
9.3599005 1.5369999 -1.0311
9.3451004 1.5695 -0.954
9.3486004 1.5773 -0.99720001
9.3773003 1.5278 -0.9113
9.4050999 1.474 -0.94569999
9.3709002 1.5010999 -1.0253
9.3663998 1.5673 -0.92259997
9.3495998 1.5842 -0.97689998
9.3800001 1.4804 -1.0069
9.3492002 1.5829999 -0.96899998
9.3486996 1.5807 -0.99000001
9.3582001 1.5822999 -0.94309998
9.3473997 1.5215 -1.0117
9.3858004 1.471 -0.97359997
9.3563995 1.5365 -1.0276999
9.3549995 1.5416 -1.0264
9.3497 1.5245 -1.0168
9.3725996 1.5418 -1.0404
9.3971996 1.4692 -0.98890001
9.3892002 1.5297 -0.90640002
9.3803997 1.5470999 -0.90890002
9.3493004 1.551 -1.0182
9.3472996 1.564 -1.0091
9.3824997 1.4972 -1.0295
9.3821001 1.5017999 -0.92009997
9.3572998 1.5283999 -1.0273
9.4003 1.5013 -0.9149
9.3487997 1.557 -1.0154999
9.3683004 1.5089 -1.0288
9.3542004 1.5603 -1.0215
9.3508997 1.5799 -0.99900001
9.3691998 1.5492001 -0.91509998
9.3908005 1.493 -1.0294
9.3584003 1.5434 -1.0298001
9.349 1.5795 -0.99419999
9.3774004 1.4954 -1.025
9.3872004 1.5482 -0.90649998
9.3554001 1.563 -1.0217
9.3893995 1.4884 -1.0243
9.3683996 1.5451 -0.9152
9.3570004 1.5776 -0.93959999
9.3794003 1.5059 -1.0341001
9.3655996 1.5754 -0.92809999
9.3564997 1.5154001 -1.0213
9.3467999 1.5709 -1.0017
9.3859997 1.471 -0.97210002
9.3667002 1.5613 -0.91979998
9.3774004 1.5453 -0.91009998
9.3396997 1.5652 -0.98009998
9.3559999 1.5713 -0.93550003
9.3469 1.5294 -1.0142
